606,613,652,693,732,756,781,788,784,775,764,761,778,794,803,806,809,810,814,808,804,811,814,812,806,802,815,824,832,842,859,869,872,869,854,835,813,807,817,817,811,804,789,787,809,832,849,853,856,856,851,846,836,818,788,752,716,679,643,603,561,528,501,500,515,544,576,603,620,624,609,590,581,591,600,577,568,590,600,595,591,583,566,565,560,557,549,534,517,491,471,448,424,394,372,352,331,323,335,345,331,325,334,345,354,360,364,356,371,395,423,453,479,487,464,434,405,375,345,316,301,288,292,314,340,364,378,387,397,404,405,399,409,439,470,501,516,520,509,484,455,427,407,395,384,369,362,365,367,363,348,333,322,312,301,301,315,320,340,366,379,363,332,314,325,338,347,349,342,339,346,353,362,367,371,372,376,381,385,387,386,388,395,400,404,410,420,440,460,478,481,488,506,532,568,605,628,638,640,649,654,663,684,702,689,682,691,707,734,767,798,831,848,873,907,940,964,1001,1042,1072,1084,1087,1076,1065,1047,1024,1009,1031,1065,1097,1127,1152,1174,1181,1174,1166,1161,1150,1128,1110,1110,1119,1136,1145,1158,1178,1198,1217,1231,1235,1241,1242,1249,1261,1267,1273,1287,1296,1292,1278,1254,1234,1220,1200,1180,1160,1142,1132,1120,1103,1085,1062,1024,1000,984,959,923,885,860,840,806,774,751,737,744,773,791,768,737,706,679,642,617,605,603,610,593,565,531,498,482,470,458,445,425,397,385,405,433,430,393,367,356,357,370,372,375,397,408,398,382,361,363,388,418,435,445,462,474,485,475,441,406,376,352,361,371,370,370,388,423,456,487,520,560,590,612,636,670,702,689,655,618,591,586,578,552,518,489,489,486,480,477,491,496,487,470,468,486,509,531,546,544,523,498,469,444,419,392,360,333,310,285,262,263,265,269,286,302,316,331,344,358,377,390,399,412,416,415,422,427,411,386,367,345,311,279,247,237,258,282,306,333,365,395,393,372,367,365,344,328,290,260,244,227,200,184,169,158,143,131,122,107,92,74,67,62,55,59,93,122,125,120,112,113,110,117,110,93,79,71,67,64,64,61,54,51,44,39,50,52,49,48,47,44,40,37,35,35,56,80,87,111,136,149,134,111,118,135,127,104,83,64,50,41,32,28,25,20,14,13,16,15,13,12,12,13,17,18,19,19,19,19,20,20,20,22,20,17,19,21,19,20,21,18,18,19,19,18,20,18,17,15,15,16,16,15,14,14,13,14,15,14,13,10,12,11,9,8,8,8,7,8,7,7,6,5,5,4,4,5,3,3,3,2,0,0,1,1,1,1,1,2,1,2,2,2,0,0,-1,-1,-1,0,-1,0,0,0,-1,-3,-1,-2,0,0,0,-3,-3,-2,-2,-2,-1,0,-1,0,2,1,1,-2,0,0,0,0,0,0,0,0,0,0,0,0,0,0,0,0,0,0,0,0,0,0,0,0,0,0,0,0,0,0,0,0,0,0,0,0,0,0,0,0,0,0,0,0,0,0,0,0,0,0,0,0,0,0,0,0,0,0,0,0,0,0,0,0,0,0,0,0,0,0,0,0,0,0,0,0,0,0,0,0,0,0,0,0,0,0,0,0,0,0,0,0,0,0,0,0,0,0,0,0,0,0,0,0,0,0,0,0,0,0,0,0,0,0,0,0,0,0,0,0,0,0,0,0,0,0,0,0,0,0,0,0,0,0,0,0,0,0,0,0,0,0,0,0,0,0,0,0,0,0,0,0,0,0,0,0,0,0,0,0,0,0,0,0,0,0,0,0,0,0,0,0,0,0,0,0,0,0,0,0,0,0,0,0,0,0,0,0,0,0,0,0,0,0,0,0,0,0,0,0,0,0,0,0,0,0,0,0,0,0,0,0,0,0,0,0,0,0,0,0,0,0,0,0,0,0,0,0,0,0,0,0,0,0,0,0,0,0,0,0,0,0,0,0,0,0,0,0,0,0,0,0,0,0,0,0,0,0,0,0,0,0,0,0,0,0,0,0,0,0,0,0,0,0,0,0,0,0,0,0,0,0,0,0,0,0,0,0,0,0,0,0,0,0,0,0,0,0,0,0,0,0,0,0,0,0,0,0,0,0,0,0,0,0,0,0,0,0,0,0,0,0,0,0,0,0,0,0,0,0,0,0,0,0,0,0,0,0,0,0,0,0,0,0,0,0,0,0,0,0,0,0,0,0,0,0,0,0,0,0,0,0,0,0,0,0,0,0,0,0,0,0,0,0,0,0,0,0,0,0,0,0,0,0,0,0,0,0,0,0,0,0,0,0,0,0,0,0,0,0,0,0,0,0,0,0,0,0,0,0,0,0,0,0,0,0,0,0,0,0,0,0,0,0,0,0,0,0,0,0,0,0,0,0,0,0,0,0,0,0,0,0,0,0,0,0,0,0,0,0,0,0,0,0,0,0,0,0,0,0,0,0,0,0,0,0,0,0
623,626,659,689,724,763,796,807,809,809,803,792,800,821,829,827,825,824,821,816,814,824,826,822,813,806,822,841,856,868,877,890,892,882,861,836,818,819,833,834,834,831,816,803,814,839,860,879,892,890,879,862,838,811,786,749,714,680,643,610,577,547,519,522,556,581,606,639,657,668,657,642,641,650,650,631,613,623,630,631,620,610,596,581,580,571,553,530,515,500,482,458,437,416,391,362,337,328,347,357,338,340,356,362,370,383,393,390,397,414,435,463,490,489,448,411,377,346,318,293,294,299,303,314,339,373,403,413,421,433,440,428,422,443,471,498,511,504,488,467,448,424,397,378,362,347,341,339,340,333,322,312,305,302,299,314,334,349,364,386,400,379,351,326,319,318,323,326,329,330,337,354,360,362,364,365,367,370,373,377,386,391,397,402,406,413,420,430,444,459,466,480,499,515,521,544,566,582,587,587,592,607,638,654,647,678,702,718,752,779,796,823,836,852,881,921,957,996,1034,1073,1100,1100,1084,1072,1060,1039,1016,1033,1063,1093,1125,1149,1171,1185,1180,1170,1162,1148,1128,1125,1134,1132,1136,1148,1155,1168,1182,1198,1215,1233,1251,1270,1287,1300,1304,1303,1304,1303,1294,1279,1255,1234,1220,1200,1180,1171,1162,1153,1141,1126,1109,1090,1062,1035,1002,962,933,915,901,881,846,809,787,785,796,812,804,778,747,708,690,667,659,660,649,640,616,576,544,510,478,442,424,412,409,401,399,425,459,450,407,376,383,393,403,405,407,429,436,427,413,389,389,410,438,466,474,482,504,508,494,465,434,401,371,373,387,389,393,419,455,482,518,554,594,624,651,674,699,707,687,658,632,618,610,599,580,550,522,528,541,532,514,516,531,526,509,503,522,547,566,571,559,534,512,488,462,425,396,367,341,313,289,274,276,280,286,301,323,340,354,371,386,398,414,423,430,443,444,446,450,435,417,393,360,316,279,255,249,277,312,337,361,389,416,432,421,405,380,356,337,308,285,265,236,220,221,210,195,177,150,131,103,85,65,63,60,55,62,77,85,85,75,72,75,77,81,86,86,85,83,79,76,71,64,55,48,43,58,67,59,54,51,50,49,51,47,45,51,79,112,112,106,135,156,155,139,146,147,133,113,93,75,56,41,34,29,26,23,17,12,11,13,14,11,9,9,11,15,17,17,17,17,17,18,16,17,14,13,13,15,12,12,12,10,14,15,17,17,18,16,16,16,15,14,14,15,13,13,12,12,14,12,13,11,12,11,10,8,8,8,8,8,6,5,4,3,3,3,4,5,3,2,1,1,1,2,1,0,0,1,0,0,1,4,4,1,0,1,1,1,1,-1,0,0,0,0,0,0,-1,-1,0,1,0,2,1,-1,-2,-1,-2,-2,-2,-2,-1,-2,-2,-2,0,0,0,0,0,0,0,0,0,0,0,0,0,0,0,0,0,0,0,0,0,0,0,0,0,0,0,0,0,0,0,0,0,0,0,0,0,0,0,0,0,0,0,0,0,0,0,0,0,0,0,0,0,0,0,0,0,0,0,0,0,0,0,0,0,0,0,0,0,0,0,0,0,0,0,0,0,0,0,0,0,0,0,0,0,0,0,0,0,0,0,0,0,0,0,0,0,0,0,0,0,0,0,0,0,0,0,0,0,0,0,0,0,0,0,0,0,0,0,0,0,0,0,0,0,0,0,0,0,0,0,0,0,0,0,0,0,0,0,0,0,0,0,0,0,0,0,0,0,0,0,0,0,0,0,0,0,0,0,0,0,0,0,0,0,0,0,0,0,0,0,0,0,0,0,0,0,0,0,0,0,0,0,0,0,0,0,0,0,0,0,0,0,0,0,0,0,0,0,0,0,0,0,0,0,0,0,0,0,0,0,0,0,0,0,0,0,0,0,0,0,0,0,0,0,0,0,0,0,0,0,0,0,0,0,0,0,0,0,0,0,0,0,0,0,0,0,0,0,0,0,0,0,0,0,0,0,0,0,0,0,0,0,0,0,0,0,0,0,0,0,0,0,0,0,0,0,0,0,0,0,0,0,0,0,0,0,0,0,0,0,0,0,0,0,0,0,0,0,0,0,0,0,0,0,0,0,0,0,0,0,0,0,0,0,0,0,0,0,0,0,0,0,0,0,0,0,0,0,0,0,0,0,0,0,0,0,0,0,0,0,0,0,0,0,0,0,0,0,0,0,0,0,0,0,0,0,0,0,0,0,0,0,0,0,0,0,0,0,0,0,0,0,0,0,0,0,0,0,0,0,0,0,0,0,0,0,0,0,0,0,0,0,0,0,0,0,0,0,0,0,0,0,0,0,0,0,0,0,0,0,0,0,0,0,0,0,0,0,0,0,0,0,0,0,0,0,0,0,0,0,0,0,0,0,0,0,0,0,0,0,0,0,0,0,0,0,0,0,0,0,0,0,0,0,0,0,0,0,0,0,0,0,0,0,0,0,0
630,626,655,684,713,745,773,797,812,825,830,826,822,841,856,853,844,838,833,834,832,837,842,836,823,818,837,858,879,895,900,910,911,894,865,840,832,837,851,860,859,852,841,833,826,845,870,892,913,909,878,849,817,789,762,741,716,684,652,623,595,560,531,528,563,589,620,652,677,697,703,703,697,694,676,653,651,652,651,646,633,622,600,580,578,572,555,534,524,505,490,471,448,425,393,365,342,332,349,356,338,344,367,383,390,404,424,428,421,433,455,480,489,471,442,412,377,346,316,299,313,331,332,338,354,376,408,430,442,458,471,463,447,451,465,481,486,476,458,443,431,406,381,359,340,335,328,323,313,309,305,303,302,302,301,312,330,350,372,390,407,395,368,350,338,334,329,333,343,345,342,344,347,348,353,358,361,369,383,392,403,409,411,417,420,425,430,435,442,445,460,467,472,481,491,498,518,533,545,562,589,611,623,624,643,668,692,709,735,753,766,788,808,836,856,890,934,963,1002,1048,1096,1110,1100,1090,1079,1062,1036,1033,1053,1082,1112,1136,1157,1175,1179,1167,1160,1147,1139,1145,1153,1156,1159,1172,1179,1180,1190,1204,1217,1231,1248,1270,1293,1308,1321,1327,1327,1324,1316,1297,1270,1246,1233,1221,1209,1208,1201,1182,1165,1146,1132,1118,1102,1058,1013,984,972,957,938,912,875,847,828,829,837,830,815,790,758,729,726,717,708,697,677,660,633,595,558,519,474,438,435,440,433,432,441,467,482,463,422,393,406,421,436,432,435,459,467,460,441,418,417,431,461,493,510,513,524,536,534,501,463,438,407,392,400,413,427,453,483,508,545,579,630,658,688,712,725,712,690,674,665,657,645,630,616,593,561,567,584,578,554,551,558,565,550,545,566,589,598,597,579,555,527,500,469,425,400,373,343,318,298,283,296,304,307,309,328,349,365,379,393,407,421,438,450,460,464,466,461,449,423,390,351,316,286,281,266,275,301,333,363,390,422,446,445,415,383,350,324,301,282,265,248,239,231,215,197,174,154,119,88,75,67,67,69,60,52,50,50,53,53,52,53,53,50,49,52,72,91,94,89,74,63,52,42,52,78,78,66,63,57,57,60,59,57,57,75,110,142,133,122,145,174,183,180,176,156,138,121,106,84,56,41,33,31,26,24,23,16,11,13,14,14,11,8,9,10,11,15,16,16,15,15,14,13,13,13,12,12,10,11,14,11,10,9,10,11,10,11,11,11,12,11,11,11,9,10,9,9,11,12,12,12,13,11,10,8,8,8,8,7,5,6,5,4,4,3,3,3,3,2,2,2,1,2,2,0,0,-1,-1,1,2,4,3,0,0,1,1,0,-1,0,0,-1,-2,0,1,-1,-1,0,0,-1,0,1,-1,0,-1,-2,-2,-2,-3,-3,-2,-1,0,1,0,0,0,0,0,0,0,0,0,0,0,0,0,0,0,0,0,0,0,0,0,0,0,0,0,0,0,0,0,0,0,0,0,0,0,0,0,0,0,0,0,0,0,0,0,0,0,0,0,0,0,0,0,0,0,0,0,0,0,0,0,0,0,0,0,0,0,0,0,0,0,0,0,0,0,0,0,0,0,0,0,0,0,0,0,0,0,0,0,0,0,0,0,0,0,0,0,0,0,0,0,0,0,0,0,0,0,0,0,0,0,0,0,0,0,0,0,0,0,0,0,0,0,0,0,0,0,0,0,0,0,0,0,0,0,0,0,0,0,0,0,0,0,0,0,0,0,0,0,0,0,0,0,0,0,0,0,0,0,0,0,0,0,0,0,0,0,0,0,0,0,0,0,0,0,0,0,0,0,0,0,0,0,0,0,0,0,0,0,0,0,0,0,0,0,0,0,0,0,0,0,0,0,0,0,0,0,0,0,0,0,0,0,0,0,0,0,0,0,0,0,0,0,0,0,0,0,0,0,0,0,0,0,0,0,0,0,0,0,0,0,0,0,0,0,0,0,0,0,0,0,0,0,0,0,0,0,0,0,0,0,0,0,0,0,0,0,0,0,0,0,0,0,0,0,0,0,0,0,0,0,0,0,0,0,0,0,0,0,0,0,0,0,0,0,0,0,0,0,0,0,0,0,0,0,0,0,0,0,0,0,0,0,0,0,0,0,0,0,0,0,0,0,0,0,0,0,0,0,0,0,0,0,0,0,0,0,0,0,0,0,0,0,0,0,0,0,0,0,0,0,0,0,0,0,0,0,0,0,0,0,0,0,0,0,0,0,0,0,0,0,0,0,0,0,0,0,0,0,0,0,0,0,0,0,0,0,0,0,0,0,0,0,0,0,0,0,0,0,0,0,0,0,0,0,0,0,0,0,0,0,0,0,0,0,0,0,0,0,0,0,0,0,0,0,0,0,0,0,0,0,0,0,0,0,0,0,0,0,0,0,0,0,0,0,0,0,0,0,0,0,0,0,0,0,0,0,0,0,0,0,0,0,0,0,0,0,0
639,632,652,677,693,711,741,770,794,818,837,851,845,848,860,869,863,861,856,854,852,853,862,857,848,833,844,865,888,909,916,923,922,904,872,852,854,865,878,888,888,880,871,863,854,861,879,905,921,906,877,843,813,774,737,708,689,671,648,623,594,562,532,543,573,599,636,662,693,717,732,746,744,728,706,687,680,686,677,655,630,608,579,553,544,541,534,524,509,496,485,465,436,408,383,361,340,341,360,368,346,345,361,386,401,414,437,454,448,448,460,474,460,430,403,390,366,343,314,299,311,341,360,372,390,396,414,442,464,481,495,489,476,473,470,470,469,452,435,424,411,390,366,345,323,320,315,312,308,306,312,330,339,336,320,311,323,342,360,382,398,406,389,375,365,357,343,337,351,365,371,364,346,352,356,368,376,375,379,393,406,414,416,418,420,422,430,439,452,459,464,472,482,495,509,514,519,533,553,588,626,652,650,660,677,708,745,761,768,775,795,821,843,868,887,920,951,990,1031,1073,1120,1131,1124,1115,1106,1094,1075,1058,1043,1067,1095,1123,1150,1170,1177,1175,1169,1158,1152,1158,1167,1177,1184,1190,1197,1198,1204,1212,1221,1238,1255,1274,1297,1312,1325,1338,1345,1343,1334,1313,1288,1268,1254,1247,1240,1236,1220,1197,1176,1158,1146,1130,1113,1085,1052,1041,1026,1012,982,951,921,883,863,856,848,831,815,796,775,761,758,754,743,719,703,683,649,614,570,522,470,447,460,476,475,479,498,517,521,484,434,412,422,440,456,463,465,488,503,500,473,447,439,451,472,504,526,541,549,562,554,523,479,453,438,424,420,443,465,488,504,533,570,603,649,683,714,735,738,718,701,691,687,690,683,672,652,629,599,600,612,614,599,587,582,597,592,584,600,619,626,618,596,567,533,499,464,436,411,382,359,336,312,295,311,326,335,327,334,355,376,395,409,420,434,449,468,485,487,478,459,442,420,381,337,314,317,320,293,285,308,330,362,395,430,457,464,429,396,359,334,322,304,287,271,259,251,233,212,194,174,148,112,85,74,73,74,71,63,67,67,67,72,77,74,72,69,58,45,64,96,101,88,72,60,47,43,61,82,90,81,75,69,67,70,69,65,75,103,144,159,144,139,161,191,211,219,203,174,148,127,105,83,63,43,33,30,25,24,25,21,16,10,9,7,10,10,9,8,9,10,13,14,12,14,13,13,13,13,11,12,9,10,14,10,9,9,10,8,7,7,8,7,9,12,12,12,10,8,8,6,5,10,13,13,12,11,11,11,8,8,8,7,6,4,5,6,5,3,3,3,2,2,2,0,1,1,0,-2,0,0,0,-1,0,3,2,1,0,0,0,-1,0,0,0,-1,-2,-1,-1,0,0,-1,-1,0,0,-2,-2,-1,-1,-1,-2,-1,-1,-2,-3,-1,0,0,0,0,0,0,0,0,0,0,0,0,0,0,0,0,0,0,0,0,0,0,0,0,0,0,0,0,0,0,0,0,0,0,0,0,0,0,0,0,0,0,0,0,0,0,0,0,0,0,0,0,0,0,0,0,0,0,0,0,0,0,0,0,0,0,0,0,0,0,0,0,0,0,0,0,0,0,0,0,0,0,0,0,0,0,0,0,0,0,0,0,0,0,0,0,0,0,0,0,0,0,0,0,0,0,0,0,0,0,0,0,0,0,0,0,0,0,0,0,0,0,0,0,0,0,0,0,0,0,0,0,0,0,0,0,0,0,0,0,0,0,0,0,0,0,0,0,0,0,0,0,0,0,0,0,0,0,0,0,0,0,0,0,0,0,0,0,0,0,0,0,0,0,0,0,0,0,0,0,0,0,0,0,0,0,0,0,0,0,0,0,0,0,0,0,0,0,0,0,0,0,0,0,0,0,0,0,0,0,0,0,0,0,0,0,0,0,0,0,0,0,0,0,0,0,0,0,0,0,0,0,0,0,0,0,0,0,0,0,0,0,0,0,0,0,0,0,0,0,0,0,0,0,0,0,0,0,0,0,0,0,0,0,0,0,0,0,0,0,0,0,0,0,0,0,0,0,0,0,0,0,0,0,0,0,0,0,0,0,0,0,0,0,0,0,0,0,0,0,0,0,0,0,0,0,0,0,0,0,0,0,0,0,0,0,0,0,0,0,0,0,0,0,0,0,0,0,0,0,0,0,0,0,0,0,0,0,0,0,0,0,0,0,0,0,0,0,0,0,0,0,0,0,0,0,0,0,0,0,0,0,0,0,0,0,0,0,0,0,0,0,0,0,0,0,0,0,0,0,0,0,0,0,0,0,0,0,0,0,0,0,0,0,0,0,0,0,0,0,0,0,0,0,0,0,0,0,0,0,0,0,0,0,0,0,0,0,0,0,0,0,0,0,0,0,0,0,0,0,0,0,0,0,0,0,0,0,0,0,0,0,0,0,0,0,0,0,0,0,0,0,0,0,0,0,0,0,0,0,0,0,0,0,0,0,0,0,0,0
651,657,687,711,722,727,751,773,789,807,828,848,861,863,866,870,876,880,881,880,878,878,881,875,860,846,855,875,892,908,926,938,933,908,878,871,885,901,912,921,924,917,908,896,886,889,903,919,923,909,890,860,826,784,745,711,679,651,629,606,580,557,548,564,594,620,650,685,713,738,757,773,773,760,738,724,713,712,696,667,636,609,583,549,525,497,483,489,488,480,468,453,432,410,388,360,339,352,377,377,358,355,352,366,388,406,433,460,474,469,447,432,416,392,367,346,326,309,305,311,317,330,356,385,406,420,436,457,484,507,518,512,498,488,474,462,452,435,416,402,384,368,353,339,318,305,303,307,308,315,331,360,375,364,341,321,320,328,344,367,390,412,417,404,385,365,340,344,362,380,392,382,365,375,384,397,404,389,377,384,393,400,406,412,415,422,436,455,470,488,494,501,514,525,542,549,547,546,557,586,622,651,671,698,731,757,796,821,827,836,849,870,893,903,927,953,986,1013,1059,1114,1151,1158,1152,1142,1131,1120,1110,1098,1065,1065,1095,1126,1156,1176,1186,1188,1182,1171,1165,1170,1181,1193,1207,1213,1215,1218,1226,1233,1233,1240,1257,1274,1294,1313,1335,1349,1354,1350,1341,1324,1308,1295,1271,1258,1242,1230,1217,1199,1181,1170,1154,1147,1135,1124,1108,1087,1066,1043,1014,978,952,921,888,869,853,841,824,807,789,781,773,765,759,736,713,677,634,603,566,522,484,468,483,517,526,533,558,572,547,505,455,433,436,461,483,491,492,510,533,532,505,481,470,474,495,529,554,565,576,587,562,525,479,469,467,452,447,468,492,520,544,567,601,635,666,699,732,747,740,721,712,706,697,698,698,696,679,658,636,635,647,649,642,628,612,615,629,633,633,651,648,630,611,586,550,507,478,447,423,396,384,360,328,308,317,341,358,354,362,384,408,428,438,447,459,474,491,505,505,489,470,444,417,383,359,352,361,356,324,308,334,358,381,405,439,470,477,446,420,392,369,348,323,306,288,270,251,229,212,198,182,171,149,119,87,78,81,81,71,76,78,83,86,85,82,80,75,64,46,56,80,82,75,65,48,42,56,86,110,124,118,110,101,90,86,85,85,96,138,172,175,156,162,187,215,228,221,200,180,156,133,111,89,65,43,35,31,25,25,24,22,19,12,8,8,6,6,8,9,8,8,9,11,12,12,12,11,13,13,12,11,11,10,12,11,9,8,8,7,6,6,7,7,7,8,8,9,10,9,8,7,6,6,7,9,10,12,10,8,8,8,6,7,5,4,3,4,3,2,3,3,3,2,2,0,0,2,1,1,1,1,1,0,1,0,-1,0,0,1,-1,-1,-1,-1,-1,-1,0,0,0,1,0,-1,-1,-2,-2,-1,-2,-1,1,-1,-2,-1,-1,-2,-3,-1,0,0,0,0,0,0,0,0,0,0,0,0,0,0,0,0,0,0,0,0,0,0,0,0,0,0,0,0,0,0,0,0,0,0,0,0,0,0,0,0,0,0,0,0,0,0,0,0,0,0,0,0,0,0,0,0,0,0,0,0,0,0,0,0,0,0,0,0,0,0,0,0,0,0,0,0,0,0,0,0,0,0,0,0,0,0,0,0,0,0,0,0,0,0,0,0,0,0,0,0,0,0,0,0,0,0,0,0,0,0,0,0,0,0,0,0,0,0,0,0,0,0,0,0,0,0,0,0,0,0,0,0,0,0,0,0,0,0,0,0,0,0,0,0,0,0,0,0,0,0,0,0,0,0,0,0,0,0,0,0,0,0,0,0,0,0,0,0,0,0,0,0,0,0,0,0,0,0,0,0,0,0,0,0,0,0,0,0,0,0,0,0,0,0,0,0,0,0,0,0,0,0,0,0,0,0,0,0,0,0,0,0,0,0,0,0,0,0,0,0,0,0,0,0,0,0,0,0,0,0,0,0,0,0,0,0,0,0,0,0,0,0,0,0,0,0,0,0,0,0,0,0,0,0,0,0,0,0,0,0,0,0,0,0,0,0,0,0,0,0,0,0,0,0,0,0,0,0,0,0,0,0,0,0,0,0,0,0,0,0,0,0,0,0,0,0,0,0,0,0,0,0,0,0,0,0,0,0,0,0,0,0,0,0,0,0,0,0,0,0,0,0,0,0,0,0,0,0,0,0,0,0,0,0,0,0,0,0,0,0,0,0,0,0,0,0,0,0,0,0,0,0,0,0,0,0,0,0,0,0,0,0,0,0,0,0,0,0,0,0,0,0,0,0,0,0,0,0,0,0,0,0,0,0,0,0,0,0,0,0,0,0,0,0,0,0,0,0,0,0,0,0,0,0,0,0,0,0,0,0,0,0,0,0,0,0,0,0,0,0,0,0,0,0,0,0,0,0,0,0,0,0,0,0,0,0,0,0,0,0,0,0,0,0,0,0,0,0,0,0,0,0,0,0,0,0,0,0,0,0,0,0,0,0,0,0,0,0,0,0
661,683,720,749,750,753,778,798,809,817,831,847,864,874,880,879,885,894,902,904,903,901,902,900,887,871,871,890,913,925,938,952,941,914,895,900,923,937,948,959,962,952,941,933,926,922,930,933,924,905,878,855,824,792,760,725,691,657,617,583,572,577,588,600,626,653,680,716,737,763,786,805,802,784,772,758,741,722,694,660,634,603,574,548,518,486,461,457,454,447,440,438,423,396,370,348,347,367,391,384,380,381,366,375,394,413,437,467,484,470,441,411,388,367,346,322,303,309,332,345,347,349,356,372,393,416,440,466,502,524,529,518,499,477,460,443,430,419,407,389,362,345,329,321,316,307,309,317,324,340,355,377,383,369,348,338,337,334,353,374,397,420,430,413,384,362,346,363,380,396,403,387,375,389,404,415,421,409,394,387,399,401,405,411,420,428,444,468,487,512,531,545,554,571,585,593,586,578,566,568,592,630,675,711,749,782,823,851,871,891,909,923,933,941,959,981,1009,1031,1066,1108,1150,1180,1180,1170,1157,1148,1138,1112,1078,1067,1092,1123,1154,1182,1195,1197,1193,1182,1178,1187,1198,1213,1228,1240,1241,1239,1247,1251,1256,1260,1262,1274,1293,1312,1334,1354,1358,1357,1351,1330,1310,1294,1272,1254,1240,1229,1228,1215,1204,1187,1168,1154,1143,1131,1111,1092,1073,1047,1027,1002,977,945,910,881,856,841,822,809,795,780,773,763,751,725,686,641,608,580,551,524,504,498,522,547,573,591,614,614,578,522,468,443,461,480,501,514,524,531,548,556,539,520,510,514,533,569,592,599,602,599,566,529,496,493,488,480,487,498,516,541,569,597,627,657,684,712,740,750,742,727,717,709,705,705,704,700,689,674,666,668,675,682,680,666,647,640,645,660,668,677,675,650,639,607,545,509,487,452,422,399,381,362,340,332,338,348,368,380,387,400,419,438,462,478,495,511,520,528,528,511,481,444,413,397,403,408,406,388,353,337,348,382,405,426,460,483,487,459,434,404,370,340,319,307,286,265,253,236,224,213,198,183,164,139,103,82,84,90,81,85,89,96,95,91,89,80,72,66,50,43,56,61,59,46,43,60,89,117,148,166,166,164,147,127,116,112,114,134,169,199,194,180,194,220,240,231,208,180,161,141,123,106,84,61,43,36,32,26,25,26,23,19,15,14,11,8,7,6,8,6,7,9,10,11,12,11,11,12,13,10,10,9,9,11,11,9,7,9,9,7,7,7,7,5,7,8,8,7,8,11,7,5,4,4,5,4,5,6,4,4,3,4,3,3,3,2,3,4,3,3,3,4,3,1,1,2,1,2,4,2,2,1,0,0,0,0,0,0,0,-1,0,0,0,0,0,0,-1,0,0,-1,-1,-1,-2,-2,-1,-2,-3,-1,0,2,0,-1,-2,-2,0,0,0,0,0,0,0,0,0,0,0,0,0,0,0,0,0,0,0,0,0,0,0,0,0,0,0,0,0,0,0,0,0,0,0,0,0,0,0,0,0,0,0,0,0,0,0,0,0,0,0,0,0,0,0,0,0,0,0,0,0,0,0,0,0,0,0,0,0,0,0,0,0,0,0,0,0,0,0,0,0,0,0,0,0,0,0,0,0,0,0,0,0,0,0,0,0,0,0,0,0,0,0,0,0,0,0,0,0,0,0,0,0,0,0,0,0,0,0,0,0,0,0,0,0,0,0,0,0,0,0,0,0,0,0,0,0,0,0,0,0,0,0,0,0,0,0,0,0,0,0,0,0,0,0,0,0,0,0,0,0,0,0,0,0,0,0,0,0,0,0,0,0,0,0,0,0,0,0,0,0,0,0,0,0,0,0,0,0,0,0,0,0,0,0,0,0,0,0,0,0,0,0,0,0,0,0,0,0,0,0,0,0,0,0,0,0,0,0,0,0,0,0,0,0,0,0,0,0,0,0,0,0,0,0,0,0,0,0,0,0,0,0,0,0,0,0,0,0,0,0,0,0,0,0,0,0,0,0,0,0,0,0,0,0,0,0,0,0,0,0,0,0,0,0,0,0,0,0,0,0,0,0,0,0,0,0,0,0,0,0,0,0,0,0,0,0,0,0,0,0,0,0,0,0,0,0,0,0,0,0,0,0,0,0,0,0,0,0,0,0,0,0,0,0,0,0,0,0,0,0,0,0,0,0,0,0,0,0,0,0,0,0,0,0,0,0,0,0,0,0,0,0,0,0,0,0,0,0,0,0,0,0,0,0,0,0,0,0,0,0,0,0,0,0,0,0,0,0,0,0,0,0,0,0,0,0,0,0,0,0,0,0,0,0,0,0,0,0,0,0,0,0,0,0,0,0,0,0,0,0,0,0,0,0,0,0,0,0,0,0,0,0,0,0,0,0,0,0,0,0,0,0,0,0,0,0,0,0,0,0,0,0,0,0,0,0,0,0,0,0,0,0,0,0,0,0,0,0,0,0,0,0,0,0,0,0,0,0,0,0
692,723,752,773,772,767,782,809,824,832,837,848,861,875,886,892,894,901,912,920,926,928,930,931,926,907,897,903,925,947,961,970,955,932,925,930,945,960,974,984,980,974,964,959,950,944,948,937,916,894,870,841,811,776,743,712,680,647,602,590,613,632,637,637,665,698,727,756,779,810,835,833,820,803,783,764,740,713,686,653,619,590,567,541,511,480,456,443,440,422,410,405,400,386,362,351,373,397,414,405,406,404,383,387,410,436,464,490,488,466,435,408,388,366,343,323,308,319,344,359,373,383,395,404,408,419,444,477,504,512,514,503,489,469,446,430,418,405,396,389,376,358,338,333,331,315,308,312,320,335,353,374,384,376,368,367,364,356,357,377,403,424,423,403,381,362,349,364,387,407,413,393,387,399,413,432,443,425,398,393,407,411,414,416,424,436,456,477,502,533,570,592,604,616,627,631,622,617,606,594,592,610,637,664,707,748,791,824,852,882,921,948,960,971,979,1009,1039,1058,1083,1123,1167,1197,1204,1197,1190,1186,1166,1133,1100,1088,1090,1111,1139,1165,1185,1199,1203,1195,1194,1202,1215,1227,1242,1257,1263,1259,1265,1272,1279,1285,1283,1283,1291,1309,1328,1349,1361,1359,1351,1333,1312,1295,1278,1263,1250,1247,1244,1228,1204,1187,1170,1155,1132,1099,1083,1070,1062,1036,1014,988,963,937,913,893,864,836,819,806,794,782,771,758,741,710,671,639,615,590,564,549,542,535,554,589,624,639,640,619,580,540,488,466,485,502,520,531,544,552,565,580,570,566,558,554,563,588,616,632,629,604,570,542,516,511,501,504,515,527,544,563,581,598,628,660,695,726,753,766,755,732,717,711,709,709,713,711,704,700,703,703,706,714,720,702,687,676,675,681,692,697,694,678,646,606,554,511,479,451,420,393,371,364,374,379,384,375,389,410,421,427,430,434,453,480,510,530,548,555,550,534,505,475,448,434,445,471,458,422,392,378,368,383,412,446,481,495,480,445,404,376,351,325,293,277,263,247,234,219,208,202,187,172,156,137,121,114,107,101,95,100,108,105,101,99,100,89,80,73,63,59,55,51,48,55,82,112,131,147,174,201,214,217,202,181,157,153,162,185,207,228,222,216,230,247,244,228,204,182,159,132,107,85,68,54,44,36,33,29,27,26,26,22,21,19,19,17,13,11,10,6,6,7,8,9,9,8,7,8,10,9,10,10,10,11,10,10,10,11,11,9,9,8,7,6,8,7,6,7,9,8,6,6,5,5,6,4,4,3,3,4,3,4,3,4,4,4,4,4,5,3,2,2,3,2,1,2,1,1,3,3,1,0,2,3,2,1,1,1,1,1,2,1,-1,1,0,0,0,0,0,0,0,0,-1,-3,-2,-2,-1,-2,-1,-1,0,1,-2,-2,-1,-2,0,0,0,0,0,0,0,0,0,0,0,0,0,0,0,0,0,0,0,0,0,0,0,0,0,0,0,0,0,0,0,0,0,0,0,0,0,0,0,0,0,0,0,0,0,0,0,0,0,0,0,0,0,0,0,0,0,0,0,0,0,0,0,0,0,0,0,0,0,0,0,0,0,0,0,0,0,0,0,0,0,0,0,0,0,0,0,0,0,0,0,0,0,0,0,0,0,0,0,0,0,0,0,0,0,0,0,0,0,0,0,0,0,0,0,0,0,0,0,0,0,0,0,0,0,0,0,0,0,0,0,0,0,0,0,0,0,0,0,0,0,0,0,0,0,0,0,0,0,0,0,0,0,0,0,0,0,0,0,0,0,0,0,0,0,0,0,0,0,0,0,0,0,0,0,0,0,0,0,0,0,0,0,0,0,0,0,0,0,0,0,0,0,0,0,0,0,0,0,0,0,0,0,0,0,0,0,0,0,0,0,0,0,0,0,0,0,0,0,0,0,0,0,0,0,0,0,0,0,0,0,0,0,0,0,0,0,0,0,0,0,0,0,0,0,0,0,0,0,0,0,0,0,0,0,0,0,0,0,0,0,0,0,0,0,0,0,0,0,0,0,0,0,0,0,0,0,0,0,0,0,0,0,0,0,0,0,0,0,0,0,0,0,0,0,0,0,0,0,0,0,0,0,0,0,0,0,0,0,0,0,0,0,0,0,0,0,0,0,0,0,0,0,0,0,0,0,0,0,0,0,0,0,0,0,0,0,0,0,0,0,0,0,0,0,0,0,0,0,0,0,0,0,0,0,0,0,0,0,0,0,0,0,0,0,0,0,0,0,0,0,0,0,0,0,0,0,0,0,0,0,0,0,0,0,0,0,0,0,0,0,0,0,0,0,0,0,0,0,0,0,0,0,0,0,0,0,0,0,0,0,0,0,0,0,0,0,0,0,0,0,0,0,0,0,0,0,0,0,0,0,0,0,0,0,0,0,0,0,0,0,0,0,0,0,0,0,0,0,0,0,0,0,0,0,0,0,0,0,0,0,0,0,0,0,0,0,0,0
718,751,781,799,803,790,788,809,831,845,847,852,865,881,897,905,910,914,926,938,952,960,965,970,966,950,938,933,951,970,988,993,976,963,961,963,969,969,963,957,949,944,932,929,917,916,925,922,908,889,867,839,809,777,742,708,667,629,597,611,658,678,686,685,703,727,763,796,830,860,863,844,824,805,784,764,742,714,690,658,631,609,586,558,532,495,465,440,420,412,395,379,371,364,357,356,383,414,436,432,426,416,400,398,419,451,478,496,480,450,420,388,360,333,316,313,311,315,323,334,349,369,395,420,434,453,468,484,495,500,498,491,471,454,440,428,419,404,395,389,378,365,351,350,341,323,309,310,314,330,352,374,391,394,400,404,399,392,379,384,402,423,424,402,381,371,366,357,368,389,405,406,415,426,430,443,455,433,404,399,410,418,426,425,429,446,467,493,520,549,595,628,651,661,665,664,660,660,651,634,628,633,636,640,655,699,740,779,813,842,875,887,912,930,958,984,1018,1060,1087,1143,1196,1226,1235,1228,1221,1217,1196,1165,1142,1140,1130,1127,1141,1161,1169,1188,1206,1204,1204,1210,1220,1234,1247,1258,1271,1278,1282,1292,1299,1307,1311,1307,1306,1313,1321,1335,1345,1354,1353,1340,1321,1309,1295,1273,1254,1247,1241,1221,1189,1167,1147,1135,1111,1082,1055,1034,1021,1009,991,966,940,918,896,873,850,825,803,792,781,772,762,750,737,706,679,662,649,615,598,590,592,589,600,636,666,675,647,611,571,552,513,494,510,528,541,549,557,568,581,599,608,611,609,600,601,612,632,647,646,615,588,559,536,525,521,521,525,541,557,569,590,608,632,664,700,738,765,776,765,745,729,720,723,723,725,727,728,728,736,739,739,744,749,737,726,717,711,711,722,723,721,702,660,612,560,521,491,466,438,421,400,383,398,415,416,410,419,443,457,463,465,459,460,482,505,527,551,569,578,575,547,521,495,473,476,500,502,469,449,427,408,415,443,473,502,501,475,440,403,373,350,326,305,293,286,270,252,241,223,204,194,188,175,159,150,137,120,110,110,115,118,112,111,120,130,124,110,101,80,95,105,90,81,98,123,149,171,185,195,216,244,260,253,226,206,197,207,233,258,265,258,257,255,248,227,206,186,170,152,134,115,92,73,53,48,40,36,32,29,27,26,25,22,20,22,22,20,19,16,13,12,11,13,12,11,11,9,7,7,8,9,10,13,13,10,9,10,10,9,8,7,7,6,6,6,7,7,6,6,7,7,5,5,5,4,4,4,4,4,2,1,4,4,3,2,4,5,5,2,2,2,2,2,3,2,3,3,3,2,2,0,1,2,2,1,0,0,1,2,2,2,1,-1,0,-1,-1,1,4,0,0,-2,-2,1,1,-1,-1,0,0,0,0,0,-1,0,0,-1,-1,0,0,0,0,0,0,0,0,0,0,0,0,0,0,0,0,0,0,0,0,0,0,0,0,0,0,0,0,0,0,0,0,0,0,0,0,0,0,0,0,0,0,0,0,0,0,0,0,0,0,0,0,0,0,0,0,0,0,0,0,0,0,0,0,0,0,0,0,0,0,0,0,0,0,0,0,0,0,0,0,0,0,0,0,0,0,0,0,0,0,0,0,0,0,0,0,0,0,0,0,0,0,0,0,0,0,0,0,0,0,0,0,0,0,0,0,0,0,0,0,0,0,0,0,0,0,0,0,0,0,0,0,0,0,0,0,0,0,0,0,0,0,0,0,0,0,0,0,0,0,0,0,0,0,0,0,0,0,0,0,0,0,0,0,0,0,0,0,0,0,0,0,0,0,0,0,0,0,0,0,0,0,0,0,0,0,0,0,0,0,0,0,0,0,0,0,0,0,0,0,0,0,0,0,0,0,0,0,0,0,0,0,0,0,0,0,0,0,0,0,0,0,0,0,0,0,0,0,0,0,0,0,0,0,0,0,0,0,0,0,0,0,0,0,0,0,0,0,0,0,0,0,0,0,0,0,0,0,0,0,0,0,0,0,0,0,0,0,0,0,0,0,0,0,0,0,0,0,0,0,0,0,0,0,0,0,0,0,0,0,0,0,0,0,0,0,0,0,0,0,0,0,0,0,0,0,0,0,0,0,0,0,0,0,0,0,0,0,0,0,0,0,0,0,0,0,0,0,0,0,0,0,0,0,0,0,0,0,0,0,0,0,0,0,0,0,0,0,0,0,0,0,0,0,0,0,0,0,0,0,0,0,0,0,0,0,0,0,0,0,0,0,0,0,0,0,0,0,0,0,0,0,0,0,0,0,0,0,0,0,0,0,0,0,0,0,0,0,0,0,0,0,0,0,0,0,0,0,0,0,0,0,0,0,0,0,0,0,0,0,0,0,0,0,0,0,0,0,0,0,0,0,0,0,0,0,0,0,0,0,0,0,0,0,0,0,0,0,0,0,0,0,0,0,0,0,0,0,0,0,0,0,0,0,0,0,0,0,0
743,766,795,822,831,815,799,804,824,846,861,863,872,890,905,920,929,935,948,958,977,995,1005,1011,1012,993,979,974,980,1000,1018,1022,1012,1003,998,988,976,954,931,916,896,881,871,865,861,869,879,882,881,863,846,820,794,767,731,693,660,627,606,630,675,702,721,737,747,769,800,835,869,878,860,837,815,795,775,758,742,724,705,680,656,633,606,575,540,507,475,451,431,418,402,389,378,366,364,375,395,432,460,462,450,437,428,418,423,447,471,476,452,425,395,364,332,312,314,334,347,353,342,335,348,374,389,414,443,477,506,516,508,499,494,484,464,443,422,426,419,398,381,365,354,346,334,336,333,324,310,309,318,321,333,358,388,413,429,435,437,430,414,403,408,422,424,404,388,393,393,372,361,377,392,411,435,457,464,466,464,436,407,407,415,425,433,439,442,455,478,509,536,566,607,646,675,685,689,695,697,692,680,667,666,674,675,668,661,671,705,746,775,789,801,835,853,878,902,933,983,1028,1088,1147,1201,1243,1265,1260,1250,1232,1214,1196,1184,1181,1179,1175,1177,1189,1188,1184,1202,1215,1219,1223,1229,1237,1242,1257,1272,1290,1303,1314,1322,1326,1331,1334,1335,1334,1327,1321,1322,1336,1340,1327,1312,1301,1294,1270,1246,1228,1218,1204,1177,1143,1118,1101,1086,1063,1039,1014,996,979,964,949,941,926,908,878,850,818,796,780,771,762,757,747,729,712,713,716,694,665,643,644,657,641,644,683,714,703,670,637,602,574,536,514,525,541,561,570,576,590,605,621,636,643,645,645,644,649,655,668,668,637,610,586,561,542,543,537,534,545,565,584,606,625,644,667,694,726,750,758,761,757,749,740,741,744,746,748,751,755,761,768,773,778,781,775,763,756,749,748,754,759,745,716,671,621,579,544,520,498,480,450,420,399,421,436,440,436,448,467,474,487,492,496,490,497,509,529,554,574,594,610,591,566,536,513,501,516,536,525,497,466,448,454,474,500,506,490,466,449,427,404,377,358,346,334,320,299,283,270,257,242,222,197,177,158,139,129,122,122,129,125,122,118,126,149,167,160,142,120,95,109,124,123,104,118,140,157,187,216,237,239,254,279,291,271,251,251,265,283,300,300,288,274,253,229,203,178,158,139,120,105,94,78,65,52,44,42,38,35,31,28,27,25,24,21,20,21,20,21,21,17,13,14,14,13,11,12,10,8,7,7,7,6,10,12,9,10,11,10,9,10,9,8,8,7,6,5,5,6,5,8,7,5,6,6,6,4,4,5,5,3,2,3,2,2,2,3,3,6,5,4,4,2,2,3,2,2,2,2,1,0,1,2,2,2,2,2,1,0,1,0,1,1,1,0,0,-1,-1,1,0,0,0,-1,2,3,2,1,1,1,0,-1,-1,0,0,0,-1,-1,-1,0,0,0,0,0,0,0,0,0,0,0,0,0,0,0,0,0,0,0,0,0,0,0,0,0,0,0,0,0,0,0,0,0,0,0,0,0,0,0,0,0,0,0,0,0,0,0,0,0,0,0,0,0,0,0,0,0,0,0,0,0,0,0,0,0,0,0,0,0,0,0,0,0,0,0,0,0,0,0,0,0,0,0,0,0,0,0,0,0,0,0,0,0,0,0,0,0,0,0,0,0,0,0,0,0,0,0,0,0,0,0,0,0,0,0,0,0,0,0,0,0,0,0,0,0,0,0,0,0,0,0,0,0,0,0,0,0,0,0,0,0,0,0,0,0,0,0,0,0,0,0,0,0,0,0,0,0,0,0,0,0,0,0,0,0,0,0,0,0,0,0,0,0,0,0,0,0,0,0,0,0,0,0,0,0,0,0,0,0,0,0,0,0,0,0,0,0,0,0,0,0,0,0,0,0,0,0,0,0,0,0,0,0,0,0,0,0,0,0,0,0,0,0,0,0,0,0,0,0,0,0,0,0,0,0,0,0,0,0,0,0,0,0,0,0,0,0,0,0,0,0,0,0,0,0,0,0,0,0,0,0,0,0,0,0,0,0,0,0,0,0,0,0,0,0,0,0,0,0,0,0,0,0,0,0,0,0,0,0,0,0,0,0,0,0,0,0,0,0,0,0,0,0,0,0,0,0,0,0,0,0,0,0,0,0,0,0,0,0,0,0,0,0,0,0,0,0,0,0,0,0,0,0,0,0,0,0,0,0,0,0,0,0,0,0,0,0,0,0,0,0,0,0,0,0,0,0,0,0,0,0,0,0,0,0,0,0,0,0,0,0,0,0,0,0,0,0,0,0,0,0,0,0,0,0,0,0,0,0,0,0,0,0,0,0,0,0,0,0,0,0,0,0,0,0,0,0,0,0,0,0,0,0,0,0,0,0,0,0,0,0,0,0,0,0,0,0,0,0,0,0,0,0,0,0,0,0,0,0,0,0,0,0,0,0,0,0,0,0,0,0,0,0,0,0,0,0,0,0,0,0,0,0,0,0,0,0,0
770,781,812,841,852,845,828,820,825,850,872,882,886,891,909,926,944,959,972,986,999,1019,1036,1048,1054,1042,1029,1021,1013,1030,1049,1057,1050,1039,1020,997,968,938,914,885,860,842,822,814,812,818,829,837,841,835,819,788,760,732,702,663,633,614,613,639,683,708,735,773,804,827,854,870,873,859,843,825,806,785,766,752,737,723,709,693,668,645,618,580,548,519,488,464,446,427,410,398,384,368,376,405,427,451,465,457,438,437,438,424,403,405,425,435,414,390,364,340,318,320,349,373,389,386,368,369,366,378,403,425,451,480,512,511,492,475,459,456,438,420,396,403,407,394,381,369,351,331,319,316,314,313,309,312,329,326,328,353,389,407,418,427,440,452,450,438,433,436,430,415,412,421,410,378,364,374,392,412,440,469,488,495,470,438,409,415,422,428,436,445,454,464,482,501,528,558,587,613,644,671,694,710,718,717,709,705,703,702,708,715,704,689,691,714,732,749,776,816,856,893,932,964,999,1038,1096,1144,1199,1240,1270,1274,1260,1236,1223,1210,1202,1194,1203,1206,1206,1204,1203,1193,1201,1221,1230,1232,1236,1244,1250,1261,1281,1306,1326,1336,1347,1350,1353,1354,1348,1332,1321,1302,1298,1305,1305,1295,1289,1290,1287,1261,1226,1201,1186,1174,1154,1129,1097,1077,1061,1048,1027,1007,988,975,963,955,939,915,888,875,852,816,790,776,767,774,794,792,761,741,747,759,745,711,694,697,698,690,697,722,747,736,703,675,637,602,566,537,546,562,581,600,610,618,631,644,657,668,680,684,683,686,693,700,682,659,632,607,582,569,567,553,551,559,575,603,626,645,659,677,693,712,728,748,767,776,775,765,764,766,770,773,777,776,780,788,796,804,810,808,799,790,778,777,786,790,770,732,687,643,600,570,548,526,496,459,424,416,444,462,463,451,463,479,488,498,509,522,527,528,529,538,561,585,610,631,639,613,579,561,540,543,564,571,539,509,500,499,511,520,500,471,434,426,428,426,408,395,375,354,330,307,286,262,250,241,226,195,170,147,140,130,139,151,150,142,133,138,155,177,184,165,142,125,113,131,137,140,127,123,147,175,205,239,265,276,275,294,318,319,310,308,317,326,330,313,295,274,251,225,197,170,144,121,112,98,89,78,65,50,42,39,37,34,31,30,27,24,23,23,21,20,20,25,25,18,13,12,13,13,12,12,10,8,7,8,7,7,8,9,10,11,12,10,9,9,7,7,8,7,5,5,3,5,6,7,7,7,5,6,6,5,2,7,5,4,4,3,4,3,3,4,3,4,3,3,3,3,4,2,1,2,2,1,1,1,2,2,2,2,3,1,1,2,2,1,1,1,0,1,0,-1,0,0,1,3,1,0,0,-1,0,1,0,1,1,1,0,0,0,0,-3,-3,1,0,0,0,0,0,0,0,0,0,0,0,0,0,0,0,0,0,0,0,0,0,0,0,0,0,0,0,0,0,0,0,0,0,0,0,0,0,0,0,0,0,0,0,0,0,0,0,0,0,0,0,0,0,0,0,0,0,0,0,0,0,0,0,0,0,0,0,0,0,0,0,0,0,0,0,0,0,0,0,0,0,0,0,0,0,0,0,0,0,0,0,0,0,0,0,0,0,0,0,0,0,0,0,0,0,0,0,0,0,0,0,0,0,0,0,0,0,0,0,0,0,0,0,0,0,0,0,0,0,0,0,0,0,0,0,0,0,0,0,0,0,0,0,0,0,0,0,0,0,0,0,0,0,0,0,0,0,0,0,0,0,0,0,0,0,0,0,0,0,0,0,0,0,0,0,0,0,0,0,0,0,0,0,0,0,0,0,0,0,0,0,0,0,0,0,0,0,0,0,0,0,0,0,0,0,0,0,0,0,0,0,0,0,0,0,0,0,0,0,0,0,0,0,0,0,0,0,0,0,0,0,0,0,0,0,0,0,0,0,0,0,0,0,0,0,0,0,0,0,0,0,0,0,0,0,0,0,0,0,0,0,0,0,0,0,0,0,0,0,0,0,0,0,0,0,0,0,0,0,0,0,0,0,0,0,0,0,0,0,0,0,0,0,0,0,0,0,0,0,0,0,0,0,0,0,0,0,0,0,0,0,0,0,0,0,0,0,0,0,0,0,0,0,0,0,0,0,0,0,0,0,0,0,0,0,0,0,0,0,0,0,0,0,0,0,0,0,0,0,0,0,0,0,0,0,0,0,0,0,0,0,0,0,0,0,0,0,0,0,0,0,0,0,0,0,0,0,0,0,0,0,0,0,0,0,0,0,0,0,0,0,0,0,0,0,0,0,0,0,0,0,0,0,0,0,0,0,0,0,0,0,0,0,0,0,0,0,0,0,0,0,0,0,0,0,0,0,0,0,0,0,0,0,0,0,0,0,0,0,0,0,0,0,0,0,0,0,0,0,0,0,0,0,0,0,0,0,0,0,0,0,0,0,0,0,0,0,0
797,812,829,848,865,869,858,850,849,860,880,899,907,908,914,929,945,968,989,1009,1025,1040,1057,1075,1088,1084,1073,1060,1051,1056,1071,1085,1080,1060,1037,1009,981,956,925,885,849,818,790,775,771,775,782,789,795,796,785,765,739,711,682,648,622,628,644,655,675,706,734,774,811,847,875,890,872,851,833,815,797,780,765,752,740,721,701,681,653,632,611,583,555,527,498,473,447,427,406,392,382,385,392,413,442,454,441,422,408,399,402,394,379,375,383,396,371,345,326,322,323,345,382,417,429,409,393,402,387,381,409,441,471,488,497,478,454,435,419,417,407,384,370,363,369,368,361,365,352,330,317,324,327,323,317,324,342,339,330,345,363,375,392,407,425,448,468,474,472,467,456,446,446,436,408,385,372,377,392,413,435,462,487,498,473,439,413,413,422,428,436,445,457,468,479,491,507,524,550,567,602,631,670,700,718,725,736,746,744,741,746,760,758,742,725,723,743,774,809,846,894,944,990,1015,1049,1075,1117,1155,1182,1223,1253,1261,1257,1242,1230,1217,1211,1208,1215,1221,1219,1214,1208,1199,1196,1208,1226,1228,1235,1241,1247,1256,1275,1294,1316,1331,1341,1343,1347,1347,1339,1331,1312,1291,1279,1277,1271,1264,1260,1263,1257,1231,1201,1180,1161,1144,1136,1115,1089,1070,1054,1040,1025,1016,1008,1002,995,991,972,938,899,871,852,830,812,796,782,798,824,829,804,783,780,783,779,760,748,752,747,742,748,772,781,766,736,705,662,623,594,570,565,580,606,631,647,653,662,674,688,697,709,719,718,721,729,727,707,680,649,627,608,595,587,568,567,580,593,614,642,667,679,689,700,712,731,752,774,797,802,800,799,798,799,802,807,805,804,810,815,820,826,826,823,816,806,803,805,805,781,735,689,654,611,569,545,522,489,456,433,447,480,492,495,486,477,493,511,516,528,543,554,555,551,551,574,599,630,655,675,661,627,604,591,584,593,607,585,558,553,546,540,524,487,441,409,389,391,398,392,381,363,343,319,296,269,245,223,212,199,174,162,163,162,145,146,170,181,170,153,158,186,205,192,173,164,144,120,142,154,161,165,142,144,173,202,234,272,298,310,321,347,364,362,355,346,331,317,298,284,271,259,241,217,192,174,153,141,129,111,90,70,52,44,43,39,34,30,29,29,26,26,24,22,20,20,20,20,17,14,13,13,12,11,11,10,7,9,9,8,6,7,8,7,10,10,10,8,8,10,8,8,8,7,6,6,6,6,6,5,4,3,4,3,6,4,6,6,4,3,4,4,3,4,4,3,3,3,1,2,4,5,2,2,2,3,3,2,1,3,2,0,0,2,3,3,2,1,0,0,1,0,0,-1,-1,0,0,2,1,0,2,2,2,2,2,1,1,1,0,0,0,0,0,-1,-2,0,0,0,0,0,0,0,0,0,0,0,0,0,0,0,0,0,0,0,0,0,0,0,0,0,0,0,0,0,0,0,0,0,0,0,0,0,0,0,0,0,0,0,0,0,0,0,0,0,0,0,0,0,0,0,0,0,0,0,0,0,0,0,0,0,0,0,0,0,0,0,0,0,0,0,0,0,0,0,0,0,0,0,0,0,0,0,0,0,0,0,0,0,0,0,0,0,0,0,0,0,0,0,0,0,0,0,0,0,0,0,0,0,0,0,0,0,0,0,0,0,0,0,0,0,0,0,0,0,0,0,0,0,0,0,0,0,0,0,0,0,0,0,0,0,0,0,0,0,0,0,0,0,0,0,0,0,0,0,0,0,0,0,0,0,0,0,0,0,0,0,0,0,0,0,0,0,0,0,0,0,0,0,0,0,0,0,0,0,0,0,0,0,0,0,0,0,0,0,0,0,0,0,0,0,0,0,0,0,0,0,0,0,0,0,0,0,0,0,0,0,0,0,0,0,0,0,0,0,0,0,0,0,0,0,0,0,0,0,0,0,0,0,0,0,0,0,0,0,0,0,0,0,0,0,0,0,0,0,0,0,0,0,0,0,0,0,0,0,0,0,0,0,0,0,0,0,0,0,0,0,0,0,0,0,0,0,0,0,0,0,0,0,0,0,0,0,0,0,0,0,0,0,0,0,0,0,0,0,0,0,0,0,0,0,0,0,0,0,0,0,0,0,0,0,0,0,0,0,0,0,0,0,0,0,0,0,0,0,0,0,0,0,0,0,0,0,0,0,0,0,0,0,0,0,0,0,0,0,0,0,0,0,0,0,0,0,0,0,0,0,0,0,0,0,0,0,0,0,0,0,0,0,0,0,0,0,0,0,0,0,0,0,0,0,0,0,0,0,0,0,0,0,0,0,0,0,0,0,0,0,0,0,0,0,0,0,0,0,0,0,0,0,0,0,0,0,0,0,0,0,0,0,0,0,0,0,0,0,0,0,0,0,0,0,0,0,0,0,0,0,0,0,0,0,0,0,0,0,0,0,0,0,0,0,0,0,0,0
809,831,846,861,874,883,879,875,874,879,891,909,927,936,939,946,963,982,1001,1026,1049,1064,1076,1090,1100,1096,1086,1079,1074,1061,1062,1074,1076,1068,1053,1030,1007,972,937,895,861,832,805,778,755,735,736,744,744,743,743,730,713,694,669,639,620,638,672,694,700,713,737,773,806,837,862,873,858,839,823,810,793,775,755,735,719,704,684,654,626,605,581,557,535,516,486,459,438,421,406,394,398,416,427,432,448,439,417,394,376,363,361,358,356,355,353,353,341,324,324,340,351,381,423,459,460,434,425,429,410,412,432,456,483,484,471,453,434,413,395,382,379,368,357,339,336,338,337,347,351,334,319,319,335,345,336,337,349,344,335,335,344,366,395,424,449,471,493,512,512,506,493,481,471,454,428,395,378,385,399,422,447,470,492,490,468,443,420,418,423,433,436,446,456,471,489,510,531,552,567,572,585,608,639,675,695,716,748,771,787,794,802,810,809,789,777,771,765,768,793,831,884,952,1006,1032,1056,1097,1133,1181,1201,1228,1248,1255,1256,1248,1237,1225,1217,1214,1220,1224,1224,1219,1214,1204,1200,1200,1213,1217,1228,1236,1244,1254,1267,1278,1293,1305,1314,1320,1330,1341,1343,1331,1303,1278,1265,1256,1246,1240,1231,1219,1206,1191,1168,1148,1133,1120,1120,1114,1099,1080,1069,1056,1046,1039,1035,1031,1029,1030,1011,973,943,916,890,863,837,809,799,815,839,861,845,825,815,805,799,792,786,790,792,790,797,816,814,790,759,718,679,652,634,611,595,605,629,653,670,681,691,702,717,731,743,752,748,750,755,749,724,694,673,656,643,630,613,594,584,599,617,637,661,686,703,710,718,730,750,774,794,815,825,832,834,828,829,834,839,838,834,834,841,844,840,835,833,830,831,833,827,803,766,725,692,660,613,578,548,514,479,455,463,492,520,537,544,531,518,511,535,564,574,572,578,578,572,568,588,612,639,668,693,689,662,645,634,629,634,642,629,606,593,572,544,507,462,424,396,368,359,357,351,344,335,328,309,288,259,235,215,197,183,176,183,176,168,157,152,182,212,206,182,177,202,220,212,206,183,160,144,154,179,192,199,173,159,185,212,238,275,318,346,364,380,392,387,371,348,327,306,287,268,251,234,219,200,179,164,147,126,116,98,77,65,53,46,42,38,33,31,30,31,31,27,25,24,22,20,19,19,16,16,14,12,12,11,10,10,10,11,12,8,6,6,7,7,7,9,9,9,7,9,8,7,8,7,7,9,11,9,7,7,6,5,4,6,6,6,6,7,6,4,4,3,3,4,3,4,4,2,1,2,4,5,3,3,3,2,2,1,2,1,0,1,1,2,2,2,1,1,-1,0,2,0,-1,-1,1,2,1,1,-1,0,3,4,3,1,-1,-1,-1,0,-1,-1,0,0,0,-1,-1,0,0,0,0,0,0,0,0,0,0,0,0,0,0,0,0,0,0,0,0,0,0,0,0,0,0,0,0,0,0,0,0,0,0,0,0,0,0,0,0,0,0,0,0,0,0,0,0,0,0,0,0,0,0,0,0,0,0,0,0,0,0,0,0,0,0,0,0,0,0,0,0,0,0,0,0,0,0,0,0,0,0,0,0,0,0,0,0,0,0,0,0,0,0,0,0,0,0,0,0,0,0,0,0,0,0,0,0,0,0,0,0,0,0,0,0,0,0,0,0,0,0,0,0,0,0,0,0,0,0,0,0,0,0,0,0,0,0,0,0,0,0,0,0,0,0,0,0,0,0,0,0,0,0,0,0,0,0,0,0,0,0,0,0,0,0,0,0,0,0,0,0,0,0,0,0,0,0,0,0,0,0,0,0,0,0,0,0,0,0,0,0,0,0,0,0,0,0,0,0,0,0,0,0,0,0,0,0,0,0,0,0,0,0,0,0,0,0,0,0,0,0,0,0,0,0,0,0,0,0,0,0,0,0,0,0,0,0,0,0,0,0,0,0,0,0,0,0,0,0,0,0,0,0,0,0,0,0,0,0,0,0,0,0,0,0,0,0,0,0,0,0,0,0,0,0,0,0,0,0,0,0,0,0,0,0,0,0,0,0,0,0,0,0,0,0,0,0,0,0,0,0,0,0,0,0,0,0,0,0,0,0,0,0,0,0,0,0,0,0,0,0,0,0,0,0,0,0,0,0,0,0,0,0,0,0,0,0,0,0,0,0,0,0,0,0,0,0,0,0,0,0,0,0,0,0,0,0,0,0,0,0,0,0,0,0,0,0,0,0,0,0,0,0,0,0,0,0,0,0,0,0,0,0,0,0,0,0,0,0,0,0,0,0,0,0,0,0,0,0,0,0,0,0,0,0,0,0,0,0,0,0,0,0,0,0,0,0,0,0,0,0,0,0,0,0,0,0,0,0,0,0,0,0,0,0,0,0,0,0,0,0,0,0,0,0,0,0,0,0,0,0,0,0,0,0,0,0,0,0,0,0,0,0,0,0,0,0,0
818,839,860,876,891,898,893,893,894,896,906,915,933,952,963,973,990,1009,1020,1037,1054,1060,1064,1072,1079,1071,1064,1066,1056,1031,1018,1032,1041,1049,1048,1034,1016,983,943,907,882,865,835,800,765,730,713,710,705,697,693,686,671,656,644,625,629,654,681,708,727,741,773,800,824,852,868,862,844,823,816,806,788,771,752,730,708,686,667,644,622,599,579,554,534,520,496,481,464,446,426,413,426,453,468,465,450,430,405,383,352,339,336,334,337,332,329,322,329,347,354,360,384,419,457,490,487,464,454,453,439,447,471,493,501,479,456,444,437,423,406,387,367,353,346,335,321,321,320,326,333,329,319,315,325,353,352,352,363,365,359,348,339,358,392,426,454,471,494,519,531,531,524,507,481,456,425,394,385,398,417,431,451,476,495,494,476,453,429,425,427,431,441,451,467,485,499,517,553,591,616,625,617,608,617,645,669,700,744,780,809,835,851,856,845,829,820,822,812,795,798,824,856,896,945,988,1025,1059,1087,1131,1172,1200,1220,1253,1254,1246,1238,1232,1225,1225,1230,1232,1234,1232,1228,1214,1211,1213,1215,1217,1224,1238,1244,1249,1260,1270,1277,1288,1300,1320,1340,1356,1364,1335,1302,1277,1256,1240,1227,1213,1207,1193,1169,1148,1130,1117,1107,1098,1110,1125,1116,1106,1096,1085,1074,1068,1064,1065,1060,1053,1034,1010,973,946,918,883,852,827,818,836,863,884,879,859,848,834,832,824,822,832,844,846,851,861,846,809,768,735,711,697,674,644,629,630,645,672,696,709,722,732,741,756,773,785,777,767,761,754,727,705,695,686,678,665,649,618,603,619,642,663,682,703,726,739,748,762,778,800,827,847,859,869,869,862,859,864,870,871,870,868,868,868,865,859,855,853,853,859,854,817,782,750,718,670,617,572,534,492,477,489,515,538,562,580,589,581,560,554,565,590,605,595,594,601,602,604,610,624,646,669,696,709,699,685,677,667,660,651,640,616,589,562,537,506,475,440,402,376,350,324,310,304,306,301,276,254,232,212,201,193,191,194,193,186,179,167,163,195,229,232,211,199,215,238,247,232,219,209,193,189,209,230,240,214,184,194,229,263,290,328,370,407,413,407,388,366,344,324,307,290,272,251,228,207,186,164,146,130,116,103,95,87,79,64,51,43,41,36,34,31,31,30,27,27,23,23,23,21,20,18,19,17,16,13,12,11,12,13,11,11,11,9,8,9,8,8,7,11,10,10,8,7,6,6,7,8,8,9,9,7,7,6,7,6,4,7,6,6,6,8,6,3,1,2,3,2,2,3,1,2,1,2,4,4,5,4,3,2,2,2,0,-1,0,0,3,3,2,3,3,2,0,1,1,1,-1,1,2,1,1,1,1,3,3,3,1,1,1,1,0,-2,-1,0,-1,-1,-1,-1,0,0,0,0,0,0,0,0,0,0,0,0,0,0,0,0,0,0,0,0,0,0,0,0,0,0,0,0,0,0,0,0,0,0,0,0,0,0,0,0,0,0,0,0,0,0,0,0,0,0,0,0,0,0,0,0,0,0,0,0,0,0,0,0,0,0,0,0,0,0,0,0,0,0,0,0,0,0,0,0,0,0,0,0,0,0,0,0,0,0,0,0,0,0,0,0,0,0,0,0,0,0,0,0,0,0,0,0,0,0,0,0,0,0,0,0,0,0,0,0,0,0,0,0,0,0,0,0,0,0,0,0,0,0,0,0,0,0,0,0,0,0,0,0,0,0,0,0,0,0,0,0,0,0,0,0,0,0,0,0,0,0,0,0,0,0,0,0,0,0,0,0,0,0,0,0,0,0,0,0,0,0,0,0,0,0,0,0,0,0,0,0,0,0,0,0,0,0,0,0,0,0,0,0,0,0,0,0,0,0,0,0,0,0,0,0,0,0,0,0,0,0,0,0,0,0,0,0,0,0,0,0,0,0,0,0,0,0,0,0,0,0,0,0,0,0,0,0,0,0,0,0,0,0,0,0,0,0,0,0,0,0,0,0,0,0,0,0,0,0,0,0,0,0,0,0,0,0,0,0,0,0,0,0,0,0,0,0,0,0,0,0,0,0,0,0,0,0,0,0,0,0,0,0,0,0,0,0,0,0,0,0,0,0,0,0,0,0,0,0,0,0,0,0,0,0,0,0,0,0,0,0,0,0,0,0,0,0,0,0,0,0,0,0,0,0,0,0,0,0,0,0,0,0,0,0,0,0,0,0,0,0,0,0,0,0,0,0,0,0,0,0,0,0,0,0,0,0,0,0,0,0,0,0,0,0,0,0,0,0,0,0,0,0,0,0,0,0,0,0,0,0,0,0,0,0,0,0,0,0,0,0,0,0,0,0,0,0,0,0,0,0,0,0,0,0,0,0,0,0,0,0,0,0,0,0,0,0,0,0,0,0,0,0,0,0,0,0,0,0,0,0,0,0,0,0,0,0,0,0,0,0,0,0,0,0,0,0,0
832,857,875,892,908,913,908,911,914,914,924,935,941,953,970,993,1008,1017,1025,1027,1027,1029,1029,1028,1025,1023,1026,1029,1021,992,976,988,1003,1006,1007,1002,994,981,958,936,914,888,857,818,784,749,715,689,677,662,651,642,639,636,644,646,661,682,700,727,755,770,799,825,850,868,859,837,819,802,788,780,766,754,739,724,712,697,681,665,644,620,603,578,561,543,518,500,479,457,438,431,445,458,463,460,439,413,389,366,343,344,349,347,330,326,328,333,349,372,378,379,408,444,479,516,517,495,486,486,476,482,504,515,500,472,441,419,417,422,422,403,380,357,342,331,329,336,335,329,324,322,326,326,345,363,369,376,385,383,370,356,349,357,379,405,425,442,468,492,518,531,522,502,476,448,424,404,395,397,420,439,455,470,484,495,476,452,433,430,434,439,447,462,483,505,525,541,564,601,633,651,652,641,636,646,664,697,729,765,797,834,865,885,880,870,865,867,856,838,834,835,849,884,919,953,985,1015,1051,1084,1116,1155,1188,1238,1248,1244,1241,1240,1240,1243,1247,1245,1244,1243,1232,1224,1224,1228,1232,1229,1229,1235,1240,1250,1258,1266,1273,1287,1305,1325,1350,1364,1345,1314,1287,1270,1252,1237,1221,1198,1180,1174,1153,1120,1102,1085,1075,1077,1103,1128,1129,1122,1114,1103,1095,1084,1082,1081,1082,1072,1058,1036,1001,962,927,899,867,846,836,851,879,904,917,908,893,878,878,866,866,876,895,903,904,894,865,820,786,766,747,731,706,677,663,652,658,682,704,723,747,762,776,788,799,809,799,782,765,753,740,725,718,716,713,699,676,641,626,633,652,677,707,731,747,762,776,793,820,852,878,892,906,913,914,908,899,898,899,901,900,898,899,901,902,899,890,884,885,884,877,841,808,782,704,649,599,557,519,508,516,531,553,582,607,624,632,618,590,601,618,622,622,610,614,629,634,641,648,653,665,682,704,726,726,714,694,666,636,615,605,588,561,529,506,493,482,456,423,398,366,336,312,286,276,268,245,226,217,217,217,214,209,205,200,198,193,179,169,194,221,242,241,221,228,248,258,236,243,261,251,228,248,270,275,249,209,211,246,288,335,365,392,419,427,408,384,358,332,309,290,275,256,239,221,208,187,164,146,140,137,132,126,113,95,76,57,46,44,39,35,33,33,32,29,28,25,23,23,21,19,18,17,16,17,16,15,12,11,11,10,10,11,12,10,9,9,7,6,6,6,7,8,8,6,7,9,8,8,8,8,5,6,6,5,5,6,7,8,8,7,6,5,4,3,4,3,1,2,3,1,3,4,3,3,2,3,3,4,2,2,2,1,1,1,0,1,2,1,1,1,1,-1,0,1,0,1,0,-1,0,0,1,1,0,1,1,0,1,0,1,1,-1,-2,0,-2,-2,-1,-1,0,0,0,0,0,0,0,0,0,0,0,0,0,0,0,0,0,0,0,0,0,0,0,0,0,0,0,0,0,0,0,0,0,0,0,0,0,0,0,0,0,0,0,0,0,0,0,0,0,0,0,0,0,0,0,0,0,0,0,0,0,0,0,0,0,0,0,0,0,0,0,0,0,0,0,0,0,0,0,0,0,0,0,0,0,0,0,0,0,0,0,0,0,0,0,0,0,0,0,0,0,0,0,0,0,0,0,0,0,0,0,0,0,0,0,0,0,0,0,0,0,0,0,0,0,0,0,0,0,0,0,0,0,0,0,0,0,0,0,0,0,0,0,0,0,0,0,0,0,0,0,0,0,0,0,0,0,0,0,0,0,0,0,0,0,0,0,0,0,0,0,0,0,0,0,0,0,0,0,0,0,0,0,0,0,0,0,0,0,0,0,0,0,0,0,0,0,0,0,0,0,0,0,0,0,0,0,0,0,0,0,0,0,0,0,0,0,0,0,0,0,0,0,0,0,0,0,0,0,0,0,0,0,0,0,0,0,0,0,0,0,0,0,0,0,0,0,0,0,0,0,0,0,0,0,0,0,0,0,0,0,0,0,0,0,0,0,0,0,0,0,0,0,0,0,0,0,0,0,0,0,0,0,0,0,0,0,0,0,0,0,0,0,0,0,0,0,0,0,0,0,0,0,0,0,0,0,0,0,0,0,0,0,0,0,0,0,0,0,0,0,0,0,0,0,0,0,0,0,0,0,0,0,0,0,0,0,0,0,0,0,0,0,0,0,0,0,0,0,0,0,0,0,0,0,0,0,0,0,0,0,0,0,0,0,0,0,0,0,0,0,0,0,0,0,0,0,0,0,0,0,0,0,0,0,0,0,0,0,0,0,0,0,0,0,0,0,0,0,0,0,0,0,0,0,0,0,0,0,0,0,0,0,0,0,0,0,0,0,0,0,0,0,0,0,0,0,0,0,0,0,0,0,0,0,0,0,0,0,0,0,0,0,0,0,0,0,0,0,0,0,0,0,0,0,0,0,0,0,0,0,0,0,0,0,0,0,0,0
840,867,890,909,925,928,924,925,928,931,938,947,955,964,977,997,1005,1001,988,978,973,974,973,973,975,975,969,973,966,945,931,948,963,957,946,945,940,949,950,958,938,904,864,827,792,761,734,710,681,655,646,656,668,676,685,698,711,730,745,760,788,807,823,847,872,867,840,808,776,751,734,721,712,700,692,685,687,683,669,658,642,620,602,584,564,541,521,501,482,464,443,439,444,437,426,428,418,390,363,345,342,364,371,360,342,341,357,360,368,391,393,401,429,460,500,528,533,518,511,522,527,524,527,514,489,461,436,413,384,381,390,375,354,345,342,332,328,345,357,349,334,339,354,357,370,386,390,393,386,379,376,376,369,370,371,372,382,404,444,476,499,513,514,504,488,465,445,423,405,399,403,419,436,454,475,486,469,452,438,436,443,452,460,473,493,514,540,569,598,630,646,662,675,679,679,687,692,710,735,761,799,831,866,903,912,911,910,905,889,878,878,873,881,906,936,961,986,1028,1070,1099,1127,1160,1199,1239,1257,1259,1257,1256,1259,1264,1263,1262,1259,1252,1242,1236,1237,1243,1248,1246,1245,1245,1252,1255,1263,1271,1279,1289,1299,1310,1316,1314,1302,1288,1273,1260,1247,1228,1213,1191,1165,1144,1133,1103,1073,1063,1046,1053,1088,1104,1100,1096,1093,1088,1077,1065,1061,1063,1063,1061,1055,1042,1017,992,946,909,884,873,863,877,899,920,940,948,937,925,920,913,916,931,946,954,947,918,875,827,797,776,770,753,730,704,687,674,684,715,730,740,762,779,793,816,828,841,826,796,779,766,760,752,753,752,748,728,702,686,672,658,669,695,722,748,765,781,802,829,867,908,934,949,964,967,962,958,952,941,936,938,935,935,937,939,942,942,930,925,916,902,885,845,809,775,689,637,591,553,539,566,578,584,598,620,650,664,663,652,627,629,655,662,651,641,645,661,666,672,680,690,699,703,709,719,715,704,678,649,613,580,570,550,527,498,469,460,462,442,422,403,375,348,324,294,267,245,231,237,238,234,230,224,218,211,210,210,199,185,177,194,217,244,262,250,252,265,254,244,266,288,287,263,278,302,311,285,256,254,282,314,360,398,424,438,426,404,381,358,335,315,294,279,261,246,227,207,191,173,149,128,116,111,112,104,91,75,58,52,46,41,37,35,34,31,29,27,27,24,23,23,23,21,19,18,18,15,15,12,11,12,12,11,11,11,11,9,9,9,10,9,7,6,8,7,7,6,9,9,8,9,8,7,7,9,8,6,3,2,4,9,9,7,5,4,3,3,4,3,1,4,2,3,4,6,3,2,2,2,2,2,2,2,2,1,0,1,1,2,3,1,1,2,2,2,0,-1,0,-1,-1,0,1,1,1,-1,0,1,0,1,0,1,0,-1,-2,0,-1,-1,-1,0,0,0,0,0,0,0,0,0,0,0,0,0,0,0,0,0,0,0,0,0,0,0,0,0,0,0,0,0,0,0,0,0,0,0,0,0,0,0,0,0,0,0,0,0,0,0,0,0,0,0,0,0,0,0,0,0,0,0,0,0,0,0,0,0,0,0,0,0,0,0,0,0,0,0,0,0,0,0,0,0,0,0,0,0,0,0,0,0,0,0,0,0,0,0,0,0,0,0,0,0,0,0,0,0,0,0,0,0,0,0,0,0,0,0,0,0,0,0,0,0,0,0,0,0,0,0,0,0,0,0,0,0,0,0,0,0,0,0,0,0,0,0,0,0,0,0,0,0,0,0,0,0,0,0,0,0,0,0,0,0,0,0,0,0,0,0,0,0,0,0,0,0,0,0,0,0,0,0,0,0,0,0,0,0,0,0,0,0,0,0,0,0,0,0,0,0,0,0,0,0,0,0,0,0,0,0,0,0,0,0,0,0,0,0,0,0,0,0,0,0,0,0,0,0,0,0,0,0,0,0,0,0,0,0,0,0,0,0,0,0,0,0,0,0,0,0,0,0,0,0,0,0,0,0,0,0,0,0,0,0,0,0,0,0,0,0,0,0,0,0,0,0,0,0,0,0,0,0,0,0,0,0,0,0,0,0,0,0,0,0,0,0,0,0,0,0,0,0,0,0,0,0,0,0,0,0,0,0,0,0,0,0,0,0,0,0,0,0,0,0,0,0,0,0,0,0,0,0,0,0,0,0,0,0,0,0,0,0,0,0,0,0,0,0,0,0,0,0,0,0,0,0,0,0,0,0,0,0,0,0,0,0,0,0,0,0,0,0,0,0,0,0,0,0,0,0,0,0,0,0,0,0,0,0,0,0,0,0,0,0,0,0,0,0,0,0,0,0,0,0,0,0,0,0,0,0,0,0,0,0,0,0,0,0,0,0,0,0,0,0,0,0,0,0,0,0,0,0,0,0,0,0,0,0,0,0,0,0,0,0,0,0,0,0,0,0,0,0,0,0,0,0,0,0,0,0,0,0,0,0,0,0,0,0,0,0,0,0,0
845,870,892,914,933,938,938,940,942,946,949,952,962,973,979,974,965,961,944,929,922,921,919,917,919,917,913,915,910,888,877,898,907,903,893,892,887,894,904,923,912,882,857,830,799,768,740,709,667,651,668,691,707,716,737,749,766,787,797,804,820,838,849,862,879,865,837,805,769,726,695,668,657,644,635,632,633,635,626,620,618,604,582,562,547,529,510,482,460,444,423,415,415,412,401,397,390,365,343,353,362,382,380,359,349,368,396,394,389,408,415,430,452,472,488,512,534,534,530,544,548,545,534,513,490,466,448,423,391,366,357,345,332,332,333,334,330,352,373,369,351,350,376,392,404,416,412,397,394,407,416,406,399,408,407,398,398,394,418,447,470,487,500,512,510,486,456,431,415,416,408,414,430,453,471,476,468,456,444,445,450,462,479,495,515,535,555,589,640,667,676,683,689,705,719,731,744,763,777,798,828,851,889,925,943,953,953,941,925,916,918,919,928,950,980,1006,1033,1061,1096,1128,1157,1193,1224,1250,1269,1277,1276,1276,1278,1281,1284,1285,1279,1271,1264,1258,1256,1263,1267,1270,1267,1267,1270,1269,1272,1277,1282,1286,1289,1292,1286,1282,1277,1270,1258,1244,1235,1219,1203,1187,1169,1147,1109,1079,1048,1038,1025,1017,1024,1034,1042,1048,1055,1053,1048,1040,1038,1035,1033,1032,1032,1027,1017,998,962,935,916,906,890,902,925,944,954,950,940,930,927,929,943,960,975,975,958,927,887,844,814,793,781,771,750,726,706,699,721,754,769,768,774,790,808,837,867,879,861,832,808,793,780,785,798,792,780,759,742,732,720,697,694,708,733,753,772,791,820,862,907,947,981,1010,1025,1027,1024,1011,1003,997,989,985,985,987,985,982,981,983,969,942,921,897,866,832,794,752,661,631,590,565,581,618,646,654,658,663,690,702,699,693,676,655,675,702,703,686,684,697,703,706,710,722,730,727,718,711,698,678,642,613,589,552,528,511,496,477,442,421,413,402,383,362,353,341,321,293,264,248,251,254,250,244,238,229,225,227,226,212,197,189,186,207,233,249,268,277,281,286,265,259,284,311,308,293,306,328,346,329,306,316,326,345,377,412,438,435,413,390,369,349,331,319,303,288,265,240,218,202,191,174,152,129,111,100,90,87,82,74,64,54,45,44,40,37,33,31,30,27,29,26,25,25,22,20,20,21,19,18,18,16,15,14,14,13,12,10,9,8,9,11,8,7,8,9,9,8,7,7,6,7,11,9,6,6,7,6,5,3,5,5,3,3,5,5,5,5,3,3,3,1,1,1,2,2,4,5,6,4,3,3,3,1,2,3,3,3,2,2,1,1,1,2,1,2,1,2,0,0,0,1,1,0,1,1,0,-1,0,0,-1,0,-2,-1,-1,-1,-1,-1,0,0,0,-1,0,0,0,0,0,0,0,0,0,0,0,0,0,0,0,0,0,0,0,0,0,0,0,0,0,0,0,0,0,0,0,0,0,0,0,0,0,0,0,0,0,0,0,0,0,0,0,0,0,0,0,0,0,0,0,0,0,0,0,0,0,0,0,0,0,0,0,0,0,0,0,0,0,0,0,0,0,0,0,0,0,0,0,0,0,0,0,0,0,0,0,0,0,0,0,0,0,0,0,0,0,0,0,0,0,0,0,0,0,0,0,0,0,0,0,0,0,0,0,0,0,0,0,0,0,0,0,0,0,0,0,0,0,0,0,0,0,0,0,0,0,0,0,0,0,0,0,0,0,0,0,0,0,0,0,0,0,0,0,0,0,0,0,0,0,0,0,0,0,0,0,0,0,0,0,0,0,0,0,0,0,0,0,0,0,0,0,0,0,0,0,0,0,0,0,0,0,0,0,0,0,0,0,0,0,0,0,0,0,0,0,0,0,0,0,0,0,0,0,0,0,0,0,0,0,0,0,0,0,0,0,0,0,0,0,0,0,0,0,0,0,0,0,0,0,0,0,0,0,0,0,0,0,0,0,0,0,0,0,0,0,0,0,0,0,0,0,0,0,0,0,0,0,0,0,0,0,0,0,0,0,0,0,0,0,0,0,0,0,0,0,0,0,0,0,0,0,0,0,0,0,0,0,0,0,0,0,0,0,0,0,0,0,0,0,0,0,0,0,0,0,0,0,0,0,0,0,0,0,0,0,0,0,0,0,0,0,0,0,0,0,0,0,0,0,0,0,0,0,0,0,0,0,0,0,0,0,0,0,0,0,0,0,0,0,0,0,0,0,0,0,0,0,0,0,0,0,0,0,0,0,0,0,0,0,0,0,0,0,0,0,0,0,0,0,0,0,0,0,0,0,0,0,0,0,0,0,0,0,0,0,0,0,0,0,0,0,0,0,0,0,0,0,0,0,0,0,0,0,0,0,0,0,0,0,0,0,0,0,0,0,0,0,0,0,0,0,0,0,0,0,0,0,0,0,0,0,0,0,0,0,0,0,0,0,0,0,0,0
852,870,891,914,934,949,951,951,943,936,926,918,925,939,941,928,921,918,909,884,872,873,867,862,866,854,852,855,853,843,829,840,850,845,847,854,839,840,855,872,866,845,831,819,790,759,732,698,661,661,691,712,733,752,777,802,819,835,843,847,847,849,844,849,866,860,838,812,780,735,695,655,624,602,586,581,581,581,577,585,593,578,561,540,522,510,495,472,451,424,398,382,376,374,370,369,370,350,348,373,393,397,387,370,362,384,413,424,425,441,442,449,479,502,508,521,542,552,547,538,533,519,507,496,476,455,435,412,390,370,352,340,335,346,337,328,341,366,391,397,385,379,396,424,444,452,430,414,429,446,447,430,435,452,454,444,428,405,398,412,439,463,490,516,526,501,470,447,435,436,429,421,421,427,438,450,462,459,450,453,467,487,504,526,552,562,572,608,645,675,704,718,718,726,748,768,784,809,825,844,860,886,920,944,975,988,987,980,970,963,961,966,970,990,1021,1046,1076,1110,1133,1157,1185,1207,1244,1270,1287,1300,1299,1297,1301,1304,1307,1310,1309,1301,1296,1287,1285,1290,1292,1294,1293,1293,1293,1289,1286,1284,1277,1274,1273,1275,1272,1267,1264,1255,1249,1238,1225,1208,1194,1181,1166,1142,1109,1076,1043,1020,1006,992,986,996,1002,1011,1018,1029,1030,1021,1015,1010,1003,1000,1005,1009,1005,997,978,963,942,927,918,920,927,938,939,921,906,896,896,901,917,940,959,971,974,949,917,874,841,819,808,791,764,740,730,735,758,785,801,805,806,812,832,855,897,911,889,860,839,827,809,808,835,839,814,794,775,762,749,732,720,732,750,769,789,806,842,901,949,987,1010,1047,1068,1077,1072,1061,1054,1045,1041,1037,1036,1035,1032,1028,1024,1017,987,937,902,874,844,803,767,719,670,644,611,594,621,669,703,709,705,714,731,742,735,724,719,706,709,724,729,723,732,741,744,745,746,751,752,745,728,705,679,656,631,601,564,528,494,477,459,434,412,396,375,362,341,328,316,308,297,282,272,273,270,269,266,262,248,237,247,252,236,211,206,200,200,220,237,252,278,300,308,311,292,276,294,322,327,326,340,362,382,374,359,362,376,385,405,432,444,425,402,380,356,332,309,290,277,267,250,223,201,190,170,149,127,110,98,94,88,79,77,72,62,53,49,46,43,40,36,34,32,28,28,28,26,24,23,21,20,21,21,18,19,19,18,18,19,18,16,13,12,11,12,11,9,9,9,10,11,11,9,7,7,8,11,11,9,9,8,7,6,6,6,5,3,3,6,5,5,5,2,3,3,3,2,0,0,1,0,2,7,7,5,4,1,1,2,2,2,2,2,2,1,3,2,1,0,0,0,-1,-1,1,1,1,1,0,0,0,0,0,-1,0,1,0,0,1,-1,0,-1,-1,-2,-1,-2,-1,0,0,0,0,0,0,0,0,0,0,0,0,0,0,0,0,0,0,0,0,0,0,0,0,0,0,0,0,0,0,0,0,0,0,0,0,0,0,0,0,0,0,0,0,0,0,0,0,0,0,0,0,0,0,0,0,0,0,0,0,0,0,0,0,0,0,0,0,0,0,0,0,0,0,0,0,0,0,0,0,0,0,0,0,0,0,0,0,0,0,0,0,0,0,0,0,0,0,0,0,0,0,0,0,0,0,0,0,0,0,0,0,0,0,0,0,0,0,0,0,0,0,0,0,0,0,0,0,0,0,0,0,0,0,0,0,0,0,0,0,0,0,0,0,0,0,0,0,0,0,0,0,0,0,0,0,0,0,0,0,0,0,0,0,0,0,0,0,0,0,0,0,0,0,0,0,0,0,0,0,0,0,0,0,0,0,0,0,0,0,0,0,0,0,0,0,0,0,0,0,0,0,0,0,0,0,0,0,0,0,0,0,0,0,0,0,0,0,0,0,0,0,0,0,0,0,0,0,0,0,0,0,0,0,0,0,0,0,0,0,0,0,0,0,0,0,0,0,0,0,0,0,0,0,0,0,0,0,0,0,0,0,0,0,0,0,0,0,0,0,0,0,0,0,0,0,0,0,0,0,0,0,0,0,0,0,0,0,0,0,0,0,0,0,0,0,0,0,0,0,0,0,0,0,0,0,0,0,0,0,0,0,0,0,0,0,0,0,0,0,0,0,0,0,0,0,0,0,0,0,0,0,0,0,0,0,0,0,0,0,0,0,0,0,0,0,0,0,0,0,0,0,0,0,0,0,0,0,0,0,0,0,0,0,0,0,0,0,0,0,0,0,0,0,0,0,0,0,0,0,0,0,0,0,0,0,0,0,0,0,0,0,0,0,0,0,0,0,0,0,0,0,0,0,0,0,0,0,0,0,0,0,0,0,0,0,0,0,0,0,0,0,0,0,0,0,0,0,0,0,0,0,0,0,0,0,0,0,0,0,0,0,0,0,0,0,0,0,0,0,0,0,0,0,0,0,0,0,0,0,0,0,0,0,0,0,0,0,0
879,882,893,914,936,954,950,932,912,898,881,874,879,888,889,884,873,871,868,845,828,829,823,819,821,812,807,807,802,797,789,793,803,807,810,811,798,800,814,823,816,802,791,798,789,764,732,699,665,659,690,718,748,781,806,834,847,852,849,844,832,819,804,812,833,835,821,797,771,736,705,676,647,615,586,557,545,533,530,548,565,563,551,533,513,494,475,451,437,412,386,364,354,358,363,359,354,346,356,375,400,411,412,398,374,389,415,438,465,476,469,461,481,506,526,545,554,545,528,508,490,477,463,460,453,435,417,404,382,364,350,338,347,364,348,336,353,379,408,425,423,416,423,451,471,469,438,436,464,480,465,449,470,488,485,467,443,415,400,412,433,458,489,521,537,521,494,469,456,462,465,451,441,438,431,436,449,459,459,465,483,509,533,556,575,594,605,622,649,684,721,743,749,756,772,795,811,837,858,878,901,919,940,970,1000,1021,1030,1025,1020,1013,1004,1009,1013,1032,1057,1081,1113,1144,1171,1198,1213,1231,1258,1283,1307,1324,1325,1326,1331,1333,1338,1342,1340,1336,1329,1322,1318,1316,1316,1314,1315,1312,1310,1304,1294,1283,1272,1262,1253,1249,1250,1247,1243,1241,1238,1230,1218,1207,1191,1174,1159,1140,1111,1077,1047,1018,994,975,966,970,971,981,993,1015,1033,1024,1004,989,981,972,979,985,984,979,972,963,943,934,931,925,914,909,909,896,880,863,863,872,887,907,925,944,965,975,957,918,887,860,843,818,787,775,771,769,792,822,839,850,851,854,864,885,915,932,928,904,876,863,853,839,865,876,848,827,812,795,781,758,737,748,768,788,806,829,861,917,953,966,988,1024,1051,1074,1099,1105,1103,1101,1092,1085,1087,1087,1086,1078,1067,1034,985,944,906,885,849,811,771,731,709,685,645,626,664,706,743,760,755,755,776,786,781,769,760,756,752,753,756,770,786,788,788,790,790,783,771,756,736,710,680,662,636,609,574,541,509,476,450,425,400,380,367,349,335,329,320,309,303,297,297,301,302,302,301,290,259,253,268,259,232,213,216,204,214,229,242,266,301,325,334,340,329,314,318,337,345,352,371,399,416,421,407,415,428,431,445,459,448,424,401,372,346,316,291,272,248,235,222,210,186,164,153,136,128,128,130,131,111,93,85,79,69,62,53,44,42,40,37,33,32,30,27,26,28,26,25,23,21,20,22,19,19,18,19,17,17,19,18,19,19,15,15,14,15,15,11,9,11,10,11,10,10,7,8,9,7,6,5,4,6,7,4,5,5,4,5,5,4,3,2,2,2,3,6,2,3,4,3,2,3,6,7,5,3,3,2,1,0,1,3,2,1,1,2,1,-1,0,0,-2,1,2,0,0,1,0,0,-1,-1,-1,0,1,-1,-1,0,0,-1,-1,-1,-3,-2,0,0,0,0,0,0,0,0,0,0,0,0,0,0,0,0,0,0,0,0,0,0,0,0,0,0,0,0,0,0,0,0,0,0,0,0,0,0,0,0,0,0,0,0,0,0,0,0,0,0,0,0,0,0,0,0,0,0,0,0,0,0,0,0,0,0,0,0,0,0,0,0,0,0,0,0,0,0,0,0,0,0,0,0,0,0,0,0,0,0,0,0,0,0,0,0,0,0,0,0,0,0,0,0,0,0,0,0,0,0,0,0,0,0,0,0,0,0,0,0,0,0,0,0,0,0,0,0,0,0,0,0,0,0,0,0,0,0,0,0,0,0,0,0,0,0,0,0,0,0,0,0,0,0,0,0,0,0,0,0,0,0,0,0,0,0,0,0,0,0,0,0,0,0,0,0,0,0,0,0,0,0,0,0,0,0,0,0,0,0,0,0,0,0,0,0,0,0,0,0,0,0,0,0,0,0,0,0,0,0,0,0,0,0,0,0,0,0,0,0,0,0,0,0,0,0,0,0,0,0,0,0,0,0,0,0,0,0,0,0,0,0,0,0,0,0,0,0,0,0,0,0,0,0,0,0,0,0,0,0,0,0,0,0,0,0,0,0,0,0,0,0,0,0,0,0,0,0,0,0,0,0,0,0,0,0,0,0,0,0,0,0,0,0,0,0,0,0,0,0,0,0,0,0,0,0,0,0,0,0,0,0,0,0,0,0,0,0,0,0,0,0,0,0,0,0,0,0,0,0,0,0,0,0,0,0,0,0,0,0,0,0,0,0,0,0,0,0,0,0,0,0,0,0,0,0,0,0,0,0,0,0,0,0,0,0,0,0,0,0,0,0,0,0,0,0,0,0,0,0,0,0,0,0,0,0,0,0,0,0,0,0,0,0,0,0,0,0,0,0,0,0,0,0,0,0,0,0,0,0,0,0,0,0,0,0,0,0,0,0,0,0,0,0,0,0,0,0,0,0,0,0,0,0,0,0,0,0,0,0,0,0,0,0,0,0,0,0,0,0,0,0,0,0,0,0,0,0,0,0,0,0,0,0,0,0,0,0,0,0,0,0
911,913,915,928,940,943,928,896,867,852,838,831,836,841,840,837,829,830,829,818,799,793,787,779,782,775,772,767,766,767,759,756,763,766,771,774,767,762,770,780,775,763,749,761,776,766,736,698,670,674,700,729,764,803,828,846,847,834,820,806,789,768,763,780,795,799,795,782,766,738,712,688,667,633,603,577,554,527,509,509,525,531,528,518,499,477,454,429,412,391,370,357,366,386,395,387,374,357,370,391,407,425,429,411,389,397,419,447,475,497,502,490,489,501,523,547,549,523,496,475,457,440,422,415,408,390,372,364,358,351,338,338,361,373,360,346,344,362,394,427,447,453,460,480,493,473,451,460,484,497,480,465,483,497,485,464,438,419,406,410,429,453,484,505,524,537,526,501,480,484,492,490,478,466,449,439,444,452,459,471,487,514,541,567,593,618,648,660,676,704,723,733,744,764,777,789,806,829,860,895,919,944,961,984,1018,1046,1062,1070,1065,1055,1042,1046,1054,1063,1071,1091,1124,1156,1192,1224,1243,1262,1285,1307,1331,1349,1357,1358,1364,1369,1373,1374,1374,1370,1361,1352,1347,1343,1336,1321,1317,1314,1310,1300,1288,1276,1259,1248,1245,1236,1232,1229,1224,1222,1221,1222,1213,1202,1189,1174,1162,1143,1121,1085,1053,1024,990,962,947,954,952,958,976,990,1002,1007,991,975,964,956,952,959,961,967,961,949,938,931,926,919,908,892,881,874,857,843,837,847,859,875,896,921,948,968,973,949,927,898,871,839,819,814,819,816,834,858,877,896,901,893,901,918,939,962,965,943,918,902,882,874,880,893,877,854,840,826,811,793,773,758,774,799,819,837,859,884,912,936,959,987,1022,1047,1076,1108,1129,1146,1144,1138,1140,1138,1137,1121,1091,1044,1000,965,939,918,886,839,809,778,752,711,676,661,694,738,776,800,796,793,806,828,834,822,804,802,799,800,817,831,843,843,841,839,835,818,794,769,750,730,701,683,668,641,605,569,534,494,464,441,411,389,367,358,352,346,340,329,323,330,329,336,340,341,324,294,267,274,273,250,229,219,227,210,221,240,253,275,309,341,357,366,359,358,361,362,371,382,397,421,450,459,450,459,472,481,481,469,447,424,403,381,356,332,308,287,266,240,217,203,188,177,175,169,166,165,158,144,129,117,101,84,71,63,53,43,43,38,36,32,31,30,29,29,29,27,27,24,23,21,20,19,19,17,18,18,19,18,18,18,18,17,15,14,14,16,15,13,14,14,14,13,14,11,9,8,6,4,4,5,6,6,4,3,4,2,5,6,4,4,3,1,0,3,4,4,4,4,1,0,-1,1,3,3,3,3,2,2,1,1,2,2,3,2,1,0,1,1,1,0,1,2,0,0,-1,0,-1,-1,-2,-3,-1,-1,-1,-1,0,-1,-2,1,0,-2,-3,0,0,0,0,0,0,0,0,0,0,0,0,0,0,0,0,0,0,0,0,0,0,0,0,0,0,0,0,0,0,0,0,0,0,0,0,0,0,0,0,0,0,0,0,0,0,0,0,0,0,0,0,0,0,0,0,0,0,0,0,0,0,0,0,0,0,0,0,0,0,0,0,0,0,0,0,0,0,0,0,0,0,0,0,0,0,0,0,0,0,0,0,0,0,0,0,0,0,0,0,0,0,0,0,0,0,0,0,0,0,0,0,0,0,0,0,0,0,0,0,0,0,0,0,0,0,0,0,0,0,0,0,0,0,0,0,0,0,0,0,0,0,0,0,0,0,0,0,0,0,0,0,0,0,0,0,0,0,0,0,0,0,0,0,0,0,0,0,0,0,0,0,0,0,0,0,0,0,0,0,0,0,0,0,0,0,0,0,0,0,0,0,0,0,0,0,0,0,0,0,0,0,0,0,0,0,0,0,0,0,0,0,0,0,0,0,0,0,0,0,0,0,0,0,0,0,0,0,0,0,0,0,0,0,0,0,0,0,0,0,0,0,0,0,0,0,0,0,0,0,0,0,0,0,0,0,0,0,0,0,0,0,0,0,0,0,0,0,0,0,0,0,0,0,0,0,0,0,0,0,0,0,0,0,0,0,0,0,0,0,0,0,0,0,0,0,0,0,0,0,0,0,0,0,0,0,0,0,0,0,0,0,0,0,0,0,0,0,0,0,0,0,0,0,0,0,0,0,0,0,0,0,0,0,0,0,0,0,0,0,0,0,0,0,0,0,0,0,0,0,0,0,0,0,0,0,0,0,0,0,0,0,0,0,0,0,0,0,0,0,0,0,0,0,0,0,0,0,0,0,0,0,0,0,0,0,0,0,0,0,0,0,0,0,0,0,0,0,0,0,0,0,0,0,0,0,0,0,0,0,0,0,0,0,0,0,0,0,0,0,0,0,0,0,0,0,0,0,0,0,0,0,0,0,0,0,0,0,0,0,0,0,0,0,0,0,0,0,0,0,0,0,0,0,0,0,0,0,0,0,0,0,0,0,0,0,0,0,0,0,0,0
944,938,926,925,921,906,890,872,846,820,800,792,791,790,796,794,788,790,786,778,772,765,759,752,747,746,742,737,737,732,730,726,726,725,733,738,732,725,729,734,733,724,715,730,743,737,709,675,669,693,725,753,784,811,833,843,834,812,783,760,739,722,722,748,759,760,758,749,739,727,706,683,658,636,617,591,561,535,510,489,485,493,490,481,473,461,448,429,408,382,362,363,390,416,415,391,368,369,393,415,432,445,436,414,397,396,414,439,469,494,521,527,516,514,516,515,515,499,473,448,429,416,402,391,376,359,344,342,342,336,338,352,377,390,385,367,350,347,376,413,447,479,499,512,507,484,469,480,498,509,497,483,488,489,472,452,442,436,416,413,418,428,452,473,502,526,531,515,505,509,515,516,511,492,472,457,449,456,463,469,487,508,535,560,588,614,647,671,688,694,690,690,709,725,741,768,793,812,837,870,899,926,948,973,1004,1031,1056,1077,1088,1089,1072,1069,1085,1101,1106,1115,1132,1156,1189,1224,1267,1296,1310,1340,1367,1389,1390,1395,1398,1400,1402,1404,1406,1400,1390,1380,1372,1361,1341,1311,1288,1279,1277,1270,1260,1254,1235,1223,1224,1224,1222,1215,1202,1193,1197,1204,1204,1198,1186,1171,1154,1135,1117,1088,1057,1031,992,955,928,932,933,932,940,952,965,977,979,971,955,941,936,939,944,948,943,934,922,914,915,911,902,885,863,846,838,823,817,826,840,860,890,915,939,954,948,944,936,909,884,868,858,853,855,860,870,890,910,924,930,927,932,945,963,982,991,980,963,937,921,917,915,917,903,883,873,863,848,839,816,787,783,802,823,846,865,889,908,933,955,981,999,1023,1052,1083,1122,1157,1180,1188,1189,1185,1179,1157,1109,1067,1029,995,968,941,907,874,849,816,776,728,703,703,717,747,785,827,838,840,846,862,873,859,840,837,842,850,861,874,886,891,888,887,875,832,801,781,758,745,728,710,705,679,629,585,542,503,474,445,418,391,380,374,370,379,370,355,353,371,371,378,384,360,322,293,288,285,265,254,242,234,240,221,233,258,279,299,319,349,372,386,394,397,390,387,401,416,429,450,476,496,495,500,500,489,466,447,429,415,397,377,359,341,323,304,289,268,252,236,229,221,216,203,178,156,138,124,109,100,88,79,70,61,51,45,40,38,37,34,34,32,32,30,29,27,26,24,21,19,19,20,19,19,18,18,20,18,17,19,18,16,16,15,15,16,13,13,14,15,14,13,12,10,12,11,9,8,7,6,5,5,7,5,5,3,6,7,4,2,1,2,2,3,3,4,4,3,3,4,2,3,3,4,3,2,0,2,1,1,0,1,3,2,1,1,1,1,0,0,1,1,-1,-1,-2,0,1,0,-1,-1,-1,-1,1,1,0,-1,-1,0,1,-1,0,-2,-1,0,0,0,0,0,0,0,0,0,0,0,0,0,0,0,0,0,0,0,0,0,0,0,0,0,0,0,0,0,0,0,0,0,0,0,0,0,0,0,0,0,0,0,0,0,0,0,0,0,0,0,0,0,0,0,0,0,0,0,0,0,0,0,0,0,0,0,0,0,0,0,0,0,0,0,0,0,0,0,0,0,0,0,0,0,0,0,0,0,0,0,0,0,0,0,0,0,0,0,0,0,0,0,0,0,0,0,0,0,0,0,0,0,0,0,0,0,0,0,0,0,0,0,0,0,0,0,0,0,0,0,0,0,0,0,0,0,0,0,0,0,0,0,0,0,0,0,0,0,0,0,0,0,0,0,0,0,0,0,0,0,0,0,0,0,0,0,0,0,0,0,0,0,0,0,0,0,0,0,0,0,0,0,0,0,0,0,0,0,0,0,0,0,0,0,0,0,0,0,0,0,0,0,0,0,0,0,0,0,0,0,0,0,0,0,0,0,0,0,0,0,0,0,0,0,0,0,0,0,0,0,0,0,0,0,0,0,0,0,0,0,0,0,0,0,0,0,0,0,0,0,0,0,0,0,0,0,0,0,0,0,0,0,0,0,0,0,0,0,0,0,0,0,0,0,0,0,0,0,0,0,0,0,0,0,0,0,0,0,0,0,0,0,0,0,0,0,0,0,0,0,0,0,0,0,0,0,0,0,0,0,0,0,0,0,0,0,0,0,0,0,0,0,0,0,0,0,0,0,0,0,0,0,0,0,0,0,0,0,0,0,0,0,0,0,0,0,0,0,0,0,0,0,0,0,0,0,0,0,0,0,0,0,0,0,0,0,0,0,0,0,0,0,0,0,0,0,0,0,0,0,0,0,0,0,0,0,0,0,0,0,0,0,0,0,0,0,0,0,0,0,0,0,0,0,0,0,0,0,0,0,0,0,0,0,0,0,0,0,0,0,0,0,0,0,0,0,0,0,0,0,0,0,0,0,0,0,0,0,0,0,0,0,0,0,0,0,0,0,0,0,0,0,0,0,0,0,0,0,0,0,0,0,0,0,0,0,0,0,0
974,952,928,907,884,864,844,827,813,799,780,783,781,772,767,761,760,761,752,746,745,745,739,736,733,730,730,723,720,720,720,722,720,710,708,703,705,702,697,697,695,690,685,685,698,699,682,671,689,717,744,766,795,817,836,840,825,797,765,732,699,686,689,709,725,720,717,704,690,689,681,667,650,626,604,587,570,542,518,493,471,463,453,438,434,429,427,429,415,385,365,361,386,407,398,376,373,391,410,434,455,459,440,414,408,410,415,431,459,491,522,542,531,523,511,488,470,464,451,440,424,410,399,383,368,354,341,347,350,351,358,383,406,414,406,385,363,349,374,410,443,477,512,536,532,508,493,506,528,534,526,508,503,492,477,459,454,437,416,428,442,438,438,451,479,502,502,503,511,527,540,540,535,513,494,474,458,458,465,471,484,500,518,542,572,603,623,646,661,650,641,647,668,694,727,764,792,812,835,859,883,908,932,957,986,1013,1045,1067,1087,1101,1098,1097,1106,1128,1151,1165,1174,1182,1200,1231,1269,1298,1322,1353,1386,1408,1417,1420,1425,1429,1431,1432,1433,1426,1415,1398,1376,1358,1340,1313,1290,1265,1244,1232,1225,1217,1207,1197,1192,1191,1193,1190,1182,1167,1170,1179,1180,1176,1168,1151,1125,1101,1080,1061,1041,1020,990,956,928,909,908,913,916,924,940,956,969,966,947,933,925,928,930,931,926,918,909,899,900,899,892,884,859,838,822,819,806,806,827,850,873,894,917,930,920,908,901,900,894,889,887,881,876,888,902,914,931,947,956,960,961,969,981,994,1005,1005,985,964,960,959,949,939,922,909,905,899,898,884,858,827,805,813,830,854,872,895,917,935,955,974,987,1010,1036,1064,1092,1129,1163,1193,1205,1204,1196,1177,1147,1113,1074,1032,996,965,940,916,873,826,793,770,738,747,761,780,812,845,872,883,894,900,906,888,873,869,873,877,885,900,915,929,933,909,874,830,805,785,763,750,742,733,725,690,637,591,551,508,471,443,416,403,406,399,407,419,407,394,400,413,419,418,400,369,336,326,317,287,275,261,245,245,231,236,257,283,308,335,356,377,394,410,427,430,417,418,436,453,467,482,500,511,516,511,489,467,442,421,404,390,375,360,341,319,303,296,281,267,257,243,226,215,209,195,184,163,146,134,128,116,104,94,78,68,58,45,40,40,38,37,34,31,31,29,28,28,26,25,23,20,20,21,21,21,20,19,19,17,17,15,16,16,17,14,14,12,13,12,14,14,13,11,11,12,13,12,11,11,11,8,5,6,5,5,5,3,4,4,3,2,3,4,2,0,2,2,3,3,3,1,3,3,1,1,2,-1,1,4,2,2,1,1,0,0,0,1,2,1,1,1,1,0,1,-2,-3,-1,0,-3,-2,-1,0,0,0,1,0,0,-1,0,1,-1,0,1,1,-1,0,0,0,0,0,0,0,0,0,0,0,0,0,0,0,0,0,0,0,0,0,0,0,0,0,0,0,0,0,0,0,0,0,0,0,0,0,0,0,0,0,0,0,0,0,0,0,0,0,0,0,0,0,0,0,0,0,0,0,0,0,0,0,0,0,0,0,0,0,0,0,0,0,0,0,0,0,0,0,0,0,0,0,0,0,0,0,0,0,0,0,0,0,0,0,0,0,0,0,0,0,0,0,0,0,0,0,0,0,0,0,0,0,0,0,0,0,0,0,0,0,0,0,0,0,0,0,0,0,0,0,0,0,0,0,0,0,0,0,0,0,0,0,0,0,0,0,0,0,0,0,0,0,0,0,0,0,0,0,0,0,0,0,0,0,0,0,0,0,0,0,0,0,0,0,0,0,0,0,0,0,0,0,0,0,0,0,0,0,0,0,0,0,0,0,0,0,0,0,0,0,0,0,0,0,0,0,0,0,0,0,0,0,0,0,0,0,0,0,0,0,0,0,0,0,0,0,0,0,0,0,0,0,0,0,0,0,0,0,0,0,0,0,0,0,0,0,0,0,0,0,0,0,0,0,0,0,0,0,0,0,0,0,0,0,0,0,0,0,0,0,0,0,0,0,0,0,0,0,0,0,0,0,0,0,0,0,0,0,0,0,0,0,0,0,0,0,0,0,0,0,0,0,0,0,0,0,0,0,0,0,0,0,0,0,0,0,0,0,0,0,0,0,0,0,0,0,0,0,0,0,0,0,0,0,0,0,0,0,0,0,0,0,0,0,0,0,0,0,0,0,0,0,0,0,0,0,0,0,0,0,0,0,0,0,0,0,0,0,0,0,0,0,0,0,0,0,0,0,0,0,0,0,0,0,0,0,0,0,0,0,0,0,0,0,0,0,0,0,0,0,0,0,0,0,0,0,0,0,0,0,0,0,0,0,0,0,0,0,0,0,0,0,0,0,0,0,0,0,0,0,0,0,0,0,0,0,0,0,0,0,0,0,0,0,0,0,0,0,0,0,0,0,0,0,0,0,0,0,0,0,0,0,0,0,0,0,0,0
984,955,931,899,864,832,812,805,795,792,799,808,810,798,777,770,770,766,768,764,753,742,750,757,758,757,752,745,736,738,734,735,734,728,730,721,714,709,711,709,703,702,701,693,681,670,668,679,710,738,759,784,811,830,832,827,809,785,759,726,690,668,659,675,686,682,676,665,650,642,639,634,625,616,590,564,552,530,505,484,469,468,460,440,415,400,398,402,395,377,364,359,375,399,399,380,377,398,418,443,462,460,441,427,434,449,444,445,462,483,517,536,522,507,501,493,467,437,416,409,400,379,370,377,381,372,357,347,347,360,377,403,430,439,426,403,374,355,366,392,422,455,493,530,545,528,523,535,551,560,549,530,512,498,480,465,456,440,423,422,443,459,459,457,460,473,479,494,513,531,551,559,554,528,504,483,469,465,467,476,487,500,520,547,577,592,597,617,628,610,615,646,676,707,741,773,803,832,859,883,902,922,943,964,986,1012,1035,1064,1091,1116,1130,1134,1140,1150,1174,1202,1214,1218,1230,1243,1259,1283,1313,1340,1369,1396,1420,1439,1448,1449,1449,1445,1440,1430,1418,1398,1385,1375,1354,1329,1301,1271,1255,1243,1227,1213,1200,1188,1176,1163,1156,1154,1154,1150,1141,1144,1147,1146,1137,1125,1103,1078,1057,1039,1019,997,975,953,932,918,904,898,900,904,920,939,954,952,936,927,920,919,919,918,913,908,899,888,892,887,878,877,858,830,807,801,796,796,813,831,854,876,902,918,906,883,864,861,867,875,883,883,889,898,911,923,945,965,981,988,991,995,1005,1015,1023,1020,1010,994,984,984,969,942,931,924,927,932,938,927,889,849,834,845,868,880,885,901,918,933,952,971,985,999,1023,1043,1069,1104,1137,1168,1189,1197,1200,1192,1184,1150,1107,1060,1027,997,964,929,889,861,826,809,771,770,789,811,837,871,894,915,935,943,939,926,913,908,909,906,906,912,924,938,948,917,872,836,809,783,768,752,743,737,722,683,638,593,554,521,478,442,427,436,428,430,445,457,448,442,450,460,455,428,405,385,369,349,314,292,281,260,264,255,242,257,282,301,326,353,383,404,421,442,460,458,445,453,467,476,482,483,477,473,481,487,480,456,425,399,373,359,341,329,310,291,273,267,250,237,224,214,202,183,173,171,169,167,159,146,135,121,112,96,78,63,56,48,44,42,39,39,35,33,30,29,30,27,24,24,24,21,20,22,20,20,19,18,17,17,17,15,15,14,14,14,14,12,13,13,11,11,13,12,11,12,12,13,12,11,11,9,10,7,3,5,5,4,4,4,4,4,3,3,3,2,3,3,4,4,3,2,2,3,3,1,4,0,2,6,2,0,0,1,1,1,0,0,0,0,1,1,1,0,1,0,0,0,0,-2,-2,-1,0,2,1,0,-1,0,-1,-2,0,-1,-2,-2,-1,-1,0,0,0,0,0,0,0,0,0,0,0,0,0,0,0,0,0,0,0,0,0,0,0,0,0,0,0,0,0,0,0,0,0,0,0,0,0,0,0,0,0,0,0,0,0,0,0,0,0,0,0,0,0,0,0,0,0,0,0,0,0,0,0,0,0,0,0,0,0,0,0,0,0,0,0,0,0,0,0,0,0,0,0,0,0,0,0,0,0,0,0,0,0,0,0,0,0,0,0,0,0,0,0,0,0,0,0,0,0,0,0,0,0,0,0,0,0,0,0,0,0,0,0,0,0,0,0,0,0,0,0,0,0,0,0,0,0,0,0,0,0,0,0,0,0,0,0,0,0,0,0,0,0,0,0,0,0,0,0,0,0,0,0,0,0,0,0,0,0,0,0,0,0,0,0,0,0,0,0,0,0,0,0,0,0,0,0,0,0,0,0,0,0,0,0,0,0,0,0,0,0,0,0,0,0,0,0,0,0,0,0,0,0,0,0,0,0,0,0,0,0,0,0,0,0,0,0,0,0,0,0,0,0,0,0,0,0,0,0,0,0,0,0,0,0,0,0,0,0,0,0,0,0,0,0,0,0,0,0,0,0,0,0,0,0,0,0,0,0,0,0,0,0,0,0,0,0,0,0,0,0,0,0,0,0,0,0,0,0,0,0,0,0,0,0,0,0,0,0,0,0,0,0,0,0,0,0,0,0,0,0,0,0,0,0,0,0,0,0,0,0,0,0,0,0,0,0,0,0,0,0,0,0,0,0,0,0,0,0,0,0,0,0,0,0,0,0,0,0,0,0,0,0,0,0,0,0,0,0,0,0,0,0,0,0,0,0,0,0,0,0,0,0,0,0,0,0,0,0,0,0,0,0,0,0,0,0,0,0,0,0,0,0,0,0,0,0,0,0,0,0,0,0,0,0,0,0,0,0,0,0,0,0,0,0,0,0,0,0,0,0,0,0,0,0,0,0,0,0,0,0,0,0,0,0,0,0,0,0,0,0,0,0,0,0,0,0,0,0,0,0,0,0,0,0,0,0,0,0,0,0,0,0,0,0,0,0,0,0
960,928,909,888,863,832,821,833,830,817,833,842,840,825,802,795,801,801,803,793,772,760,776,789,793,791,784,773,769,768,758,750,749,753,755,754,751,739,738,737,736,734,726,714,696,681,673,681,708,735,762,791,814,820,811,800,787,774,752,727,702,677,651,644,655,654,645,645,631,610,595,590,586,586,571,548,526,508,490,481,481,475,456,435,409,389,382,382,379,374,366,362,373,394,405,399,384,395,409,430,456,474,471,461,466,488,485,482,492,499,515,523,500,476,470,469,459,444,417,397,377,357,354,356,371,384,374,362,351,352,370,400,429,446,434,406,386,375,359,368,404,439,472,511,534,537,548,562,570,567,554,534,519,504,484,468,458,450,442,429,439,467,483,476,464,461,471,493,509,532,559,575,568,535,507,484,472,470,476,479,486,501,520,545,563,560,564,585,594,588,613,649,683,715,751,785,825,862,888,906,929,951,969,985,1008,1032,1052,1071,1095,1122,1150,1169,1174,1175,1186,1206,1234,1255,1268,1280,1288,1301,1313,1328,1356,1383,1407,1436,1453,1458,1450,1443,1436,1426,1415,1402,1389,1375,1358,1342,1329,1311,1292,1270,1248,1231,1219,1208,1193,1176,1153,1134,1124,1125,1119,1114,1112,1106,1104,1102,1093,1078,1060,1044,1024,999,975,959,947,933,915,898,890,890,902,920,931,930,922,920,912,904,904,906,904,900,891,878,876,876,866,859,844,819,794,786,784,796,816,837,853,872,893,908,902,876,850,829,831,839,850,860,877,894,913,931,956,985,1006,1012,1017,1025,1032,1037,1043,1040,1037,1027,1014,1000,976,956,950,943,944,950,962,950,916,874,868,885,913,927,923,922,925,933,952,971,988,1002,1022,1048,1071,1102,1136,1170,1192,1201,1204,1201,1198,1164,1131,1099,1065,1034,1008,960,922,894,857,832,815,810,824,845,868,895,922,940,961,977,978,964,951,943,940,938,936,936,944,955,960,935,905,856,816,787,765,747,729,713,691,660,621,575,543,513,485,458,460,468,463,475,491,507,504,499,502,495,471,444,426,405,373,340,310,302,279,277,288,275,260,261,279,294,315,342,369,399,428,456,475,477,472,470,465,464,456,446,432,428,435,448,458,451,430,402,370,337,313,296,280,267,251,236,222,212,195,175,168,159,144,142,140,136,131,122,107,94,98,91,72,55,48,48,45,43,40,38,36,35,32,28,27,26,25,25,23,22,21,21,20,20,19,19,19,19,19,17,16,14,15,15,14,14,13,13,11,11,12,13,11,12,11,11,11,11,11,9,9,8,6,7,4,4,5,6,6,6,5,3,3,3,3,5,5,5,6,3,1,2,3,2,3,3,1,0,1,0,0,1,2,2,1,2,0,1,1,2,2,1,1,0,-1,-1,-1,-1,-2,-1,-1,-1,-1,-1,-1,-2,1,-2,0,0,-1,-1,2,1,0,0,0,0,0,0,0,0,0,0,0,0,0,0,0,0,0,0,0,0,0,0,0,0,0,0,0,0,0,0,0,0,0,0,0,0,0,0,0,0,0,0,0,0,0,0,0,0,0,0,0,0,0,0,0,0,0,0,0,0,0,0,0,0,0,0,0,0,0,0,0,0,0,0,0,0,0,0,0,0,0,0,0,0,0,0,0,0,0,0,0,0,0,0,0,0,0,0,0,0,0,0,0,0,0,0,0,0,0,0,0,0,0,0,0,0,0,0,0,0,0,0,0,0,0,0,0,0,0,0,0,0,0,0,0,0,0,0,0,0,0,0,0,0,0,0,0,0,0,0,0,0,0,0,0,0,0,0,0,0,0,0,0,0,0,0,0,0,0,0,0,0,0,0,0,0,0,0,0,0,0,0,0,0,0,0,0,0,0,0,0,0,0,0,0,0,0,0,0,0,0,0,0,0,0,0,0,0,0,0,0,0,0,0,0,0,0,0,0,0,0,0,0,0,0,0,0,0,0,0,0,0,0,0,0,0,0,0,0,0,0,0,0,0,0,0,0,0,0,0,0,0,0,0,0,0,0,0,0,0,0,0,0,0,0,0,0,0,0,0,0,0,0,0,0,0,0,0,0,0,0,0,0,0,0,0,0,0,0,0,0,0,0,0,0,0,0,0,0,0,0,0,0,0,0,0,0,0,0,0,0,0,0,0,0,0,0,0,0,0,0,0,0,0,0,0,0,0,0,0,0,0,0,0,0,0,0,0,0,0,0,0,0,0,0,0,0,0,0,0,0,0,0,0,0,0,0,0,0,0,0,0,0,0,0,0,0,0,0,0,0,0,0,0,0,0,0,0,0,0,0,0,0,0,0,0,0,0,0,0,0,0,0,0,0,0,0,0,0,0,0,0,0,0,0,0,0,0,0,0,0,0,0,0,0,0,0,0,0,0,0,0,0,0,0,0,0,0,0,0,0,0,0,0,0,0,0,0,0,0,0,0,0,0,0,0,0,0,0,0,0,0,0,0,0,0,0,0,0,0,0,0,0,0,0,0,0,0,0
927,894,863,848,843,830,832,857,853,832,850,871,873,849,828,822,830,828,822,807,791,782,799,818,823,821,816,804,804,798,785,778,776,780,782,783,781,767,763,770,768,762,748,724,698,677,682,706,728,747,767,790,801,796,781,768,751,744,734,718,701,675,647,627,637,638,623,623,620,601,572,560,555,554,546,530,511,497,486,482,476,455,430,402,385,380,375,371,370,364,367,374,384,399,417,408,388,398,411,430,462,494,510,504,508,522,524,520,529,536,540,530,501,469,443,426,414,406,402,394,374,362,359,362,356,358,353,350,348,354,375,398,427,447,439,418,405,385,365,378,405,432,457,483,503,518,535,563,577,568,549,540,533,514,493,473,458,446,437,436,452,479,495,488,473,464,471,487,505,532,556,568,564,551,518,485,470,466,479,484,489,497,506,519,527,533,545,559,572,593,620,651,684,712,738,775,814,846,871,910,949,972,987,1009,1039,1065,1084,1101,1126,1150,1172,1196,1209,1210,1214,1224,1240,1264,1295,1316,1328,1342,1343,1346,1356,1377,1402,1428,1445,1446,1440,1435,1425,1416,1407,1392,1378,1363,1349,1341,1335,1334,1318,1292,1270,1252,1238,1221,1203,1185,1166,1136,1116,1108,1101,1100,1096,1088,1085,1082,1080,1071,1056,1045,1031,1006,978,956,941,928,921,910,896,884,881,884,894,894,894,897,894,888,887,894,897,892,879,867,863,868,867,854,829,803,786,778,781,801,824,845,861,877,884,880,884,873,852,819,803,809,830,851,875,897,916,936,959,979,1001,1017,1028,1040,1050,1052,1057,1056,1061,1062,1046,1023,998,984,974,973,973,972,977,968,935,911,912,924,953,974,967,958,953,952,957,969,984,1008,1032,1061,1086,1116,1144,1168,1187,1197,1202,1205,1207,1205,1180,1154,1116,1079,1037,1000,960,919,884,876,873,861,868,881,901,928,947,968,988,1004,1008,997,984,978,978,971,966,964,968,977,978,965,937,887,823,785,756,732,715,704,675,629,598,570,539,517,493,481,498,502,500,515,541,560,553,541,534,519,490,455,420,381,350,332,322,299,289,311,323,295,267,271,298,324,342,359,378,402,428,456,476,472,457,447,438,431,424,421,406,397,393,404,414,419,424,410,386,357,326,298,275,256,232,210,197,180,171,154,141,134,123,115,114,110,102,92,85,74,70,67,61,54,50,47,43,40,38,37,34,33,32,29,27,27,28,26,23,23,24,24,23,23,21,20,19,15,14,15,18,16,14,14,11,13,13,13,13,10,11,11,12,12,11,12,11,10,10,9,7,7,9,7,3,5,6,6,7,8,6,5,5,5,4,4,4,5,4,2,1,3,2,1,1,2,2,-1,1,0,1,1,0,2,2,0,-1,1,1,1,-1,-1,0,1,1,-1,-1,0,-3,-2,-1,-1,0,-1,0,0,-1,-2,-1,0,0,0,2,0,0,0,0,0,0,0,0,0,0,0,0,0,0,0,0,0,0,0,0,0,0,0,0,0,0,0,0,0,0,0,0,0,0,0,0,0,0,0,0,0,0,0,0,0,0,0,0,0,0,0,0,0,0,0,0,0,0,0,0,0,0,0,0,0,0,0,0,0,0,0,0,0,0,0,0,0,0,0,0,0,0,0,0,0,0,0,0,0,0,0,0,0,0,0,0,0,0,0,0,0,0,0,0,0,0,0,0,0,0,0,0,0,0,0,0,0,0,0,0,0,0,0,0,0,0,0,0,0,0,0,0,0,0,0,0,0,0,0,0,0,0,0,0,0,0,0,0,0,0,0,0,0,0,0,0,0,0,0,0,0,0,0,0,0,0,0,0,0,0,0,0,0,0,0,0,0,0,0,0,0,0,0,0,0,0,0,0,0,0,0,0,0,0,0,0,0,0,0,0,0,0,0,0,0,0,0,0,0,0,0,0,0,0,0,0,0,0,0,0,0,0,0,0,0,0,0,0,0,0,0,0,0,0,0,0,0,0,0,0,0,0,0,0,0,0,0,0,0,0,0,0,0,0,0,0,0,0,0,0,0,0,0,0,0,0,0,0,0,0,0,0,0,0,0,0,0,0,0,0,0,0,0,0,0,0,0,0,0,0,0,0,0,0,0,0,0,0,0,0,0,0,0,0,0,0,0,0,0,0,0,0,0,0,0,0,0,0,0,0,0,0,0,0,0,0,0,0,0,0,0,0,0,0,0,0,0,0,0,0,0,0,0,0,0,0,0,0,0,0,0,0,0,0,0,0,0,0,0,0,0,0,0,0,0,0,0,0,0,0,0,0,0,0,0,0,0,0,0,0,0,0,0,0,0,0,0,0,0,0,0,0,0,0,0,0,0,0,0,0,0,0,0,0,0,0,0,0,0,0,0,0,0,0,0,0,0,0,0,0,0,0,0,0,0,0,0,0,0,0,0,0,0,0,0,0,0,0,0,0,0,0,0,0,0,0,0,0,0,0,0,0,0,0,0,0,0,0,0,0,0,0,0,0,0,0,0,0,0,0
906,882,857,847,846,846,859,881,877,854,863,890,905,892,869,856,854,849,832,819,800,791,804,818,828,834,831,829,829,825,819,816,813,812,806,805,801,792,787,793,792,778,749,720,696,684,690,719,747,774,793,803,799,783,758,733,713,702,701,700,691,667,640,618,615,626,617,601,595,584,563,545,537,531,524,517,507,489,473,459,450,440,426,394,385,387,378,380,381,374,378,380,394,409,421,410,398,405,420,445,474,506,528,525,514,514,521,526,531,528,524,517,496,466,447,428,407,386,375,367,362,362,372,385,374,365,367,359,360,370,397,424,447,465,456,437,413,391,372,372,389,406,432,454,466,480,510,549,574,565,535,515,513,509,495,473,447,440,444,452,476,498,507,502,488,473,472,485,501,520,530,537,546,546,513,479,462,461,466,480,494,507,517,528,541,552,559,569,583,608,624,644,671,697,728,754,776,805,838,877,923,947,974,1016,1057,1091,1119,1139,1161,1177,1187,1201,1218,1234,1247,1254,1262,1276,1299,1321,1338,1359,1374,1378,1385,1398,1412,1427,1434,1432,1430,1423,1410,1403,1395,1381,1370,1361,1349,1337,1319,1306,1300,1289,1275,1260,1246,1224,1196,1172,1151,1132,1117,1110,1109,1105,1101,1097,1094,1088,1079,1064,1047,1032,1012,988,967,949,935,926,913,907,897,888,878,874,870,868,869,870,874,878,878,876,885,887,881,867,855,855,857,848,836,814,795,776,773,787,809,831,853,871,866,848,836,832,822,807,790,797,821,850,876,896,911,928,949,966,984,1001,1015,1030,1046,1056,1063,1068,1080,1089,1078,1054,1029,1019,1011,1010,1006,1003,1000,990,969,957,964,972,993,1015,1008,998,987,978,972,976,988,1014,1038,1063,1090,1122,1148,1159,1167,1179,1192,1204,1211,1215,1212,1204,1154,1113,1068,1031,994,956,926,926,929,917,911,920,934,957,976,999,1024,1038,1042,1034,1023,1015,1013,1005,999,994,993,998,994,973,942,892,827,793,754,729,710,694,662,627,595,563,536,523,514,525,544,548,550,566,588,598,587,562,537,508,474,439,401,366,352,343,324,300,313,349,352,314,280,283,305,331,345,362,389,422,447,467,467,454,438,427,419,403,391,382,372,362,354,359,372,377,385,390,386,374,355,333,313,286,257,237,221,196,179,173,166,146,127,119,104,100,97,88,79,76,72,68,66,63,54,47,41,38,35,34,32,32,31,30,29,30,29,26,24,23,22,23,21,21,21,21,18,17,18,16,16,17,16,14,12,13,12,12,13,11,10,11,13,12,11,11,12,9,9,9,8,7,9,8,5,7,7,5,7,8,7,7,7,6,6,4,3,3,3,2,3,3,3,1,1,1,0,1,-1,-2,-1,0,-1,0,0,0,0,-1,-1,2,0,-1,-1,0,1,0,0,0,-1,-1,0,-1,0,-2,-2,0,1,-1,-1,1,-2,0,-1,-1,0,0,0,0,0,0,0,0,0,0,0,0,0,0,0,0,0,0,0,0,0,0,0,0,0,0,0,0,0,0,0,0,0,0,0,0,0,0,0,0,0,0,0,0,0,0,0,0,0,0,0,0,0,0,0,0,0,0,0,0,0,0,0,0,0,0,0,0,0,0,0,0,0,0,0,0,0,0,0,0,0,0,0,0,0,0,0,0,0,0,0,0,0,0,0,0,0,0,0,0,0,0,0,0,0,0,0,0,0,0,0,0,0,0,0,0,0,0,0,0,0,0,0,0,0,0,0,0,0,0,0,0,0,0,0,0,0,0,0,0,0,0,0,0,0,0,0,0,0,0,0,0,0,0,0,0,0,0,0,0,0,0,0,0,0,0,0,0,0,0,0,0,0,0,0,0,0,0,0,0,0,0,0,0,0,0,0,0,0,0,0,0,0,0,0,0,0,0,0,0,0,0,0,0,0,0,0,0,0,0,0,0,0,0,0,0,0,0,0,0,0,0,0,0,0,0,0,0,0,0,0,0,0,0,0,0,0,0,0,0,0,0,0,0,0,0,0,0,0,0,0,0,0,0,0,0,0,0,0,0,0,0,0,0,0,0,0,0,0,0,0,0,0,0,0,0,0,0,0,0,0,0,0,0,0,0,0,0,0,0,0,0,0,0,0,0,0,0,0,0,0,0,0,0,0,0,0,0,0,0,0,0,0,0,0,0,0,0,0,0,0,0,0,0,0,0,0,0,0,0,0,0,0,0,0,0,0,0,0,0,0,0,0,0,0,0,0,0,0,0,0,0,0,0,0,0,0,0,0,0,0,0,0,0,0,0,0,0,0,0,0,0,0,0,0,0,0,0,0,0,0,0,0,0,0,0,0,0,0,0,0,0,0,0,0,0,0,0,0,0,0,0,0,0,0,0,0,0,0,0,0,0,0,0,0,0,0,0,0,0,0,0,0,0,0,0,0,0,0,0,0,0,0,0,0,0,0,0,0,0,0,0,0,0,0,0,0,0,0,0,0,0,0,0,0,0,0,0,0,0,0,0,0,0,0,0,0,0,0
886,875,878,883,885,891,895,909,904,880,884,912,935,931,908,895,887,870,850,830,804,803,812,818,830,840,845,848,856,855,851,848,844,839,829,815,809,798,785,781,780,768,751,727,700,689,701,724,749,775,798,804,796,779,758,730,707,685,667,668,669,652,633,610,596,609,611,596,579,568,552,543,535,531,528,522,507,489,471,453,441,425,403,388,394,405,407,406,393,380,397,396,398,414,420,418,423,421,432,467,498,521,527,508,480,470,478,481,499,498,484,496,501,493,475,453,420,396,383,377,371,368,367,383,398,396,382,374,382,387,399,418,447,472,463,439,421,401,378,370,378,390,405,425,440,463,495,533,563,559,530,506,489,483,475,463,447,458,465,466,479,500,513,512,495,483,476,478,486,498,508,519,529,522,494,467,455,458,459,474,489,500,519,536,555,572,586,593,601,620,642,659,667,684,711,731,755,787,818,852,893,930,974,1022,1066,1094,1113,1138,1154,1157,1154,1155,1173,1205,1249,1277,1291,1299,1312,1330,1348,1368,1384,1401,1418,1428,1434,1434,1434,1431,1426,1416,1409,1402,1399,1393,1381,1369,1359,1346,1323,1298,1278,1266,1258,1246,1233,1217,1196,1174,1156,1139,1133,1133,1138,1137,1132,1124,1117,1112,1101,1086,1073,1057,1035,1009,990,970,956,944,930,921,910,898,887,882,875,874,871,865,861,859,850,847,865,872,869,861,849,844,849,851,847,832,803,781,766,772,794,818,845,865,850,819,796,793,781,773,773,790,815,841,869,886,898,911,930,946,959,978,998,1013,1025,1031,1046,1060,1074,1089,1089,1076,1062,1047,1050,1055,1059,1042,1025,1019,1008,1002,1011,1020,1026,1045,1050,1039,1021,1010,995,986,994,1011,1030,1054,1073,1100,1114,1128,1144,1167,1191,1208,1216,1220,1217,1209,1181,1154,1110,1067,1023,986,976,980,980,972,967,964,972,993,1018,1037,1053,1067,1070,1066,1054,1047,1043,1037,1032,1029,1020,1015,1009,975,943,897,851,805,764,731,708,672,642,614,599,583,569,562,569,588,599,601,604,619,629,612,583,549,516,480,447,413,389,378,365,348,324,313,334,368,372,328,300,288,292,315,337,363,393,433,460,470,455,436,421,411,395,379,365,346,333,321,320,324,327,335,338,342,351,355,341,329,319,302,286,272,257,238,222,214,198,177,160,149,138,134,131,119,101,95,80,66,61,62,52,46,43,39,36,33,31,32,32,31,29,27,28,27,26,27,24,23,22,22,21,21,19,18,19,17,16,13,14,15,14,14,14,14,12,11,11,10,11,10,11,10,10,9,10,10,9,8,8,8,8,8,7,6,7,6,8,7,5,4,3,6,3,3,3,3,2,3,3,1,1,2,-1,0,1,1,0,1,-1,1,1,0,1,0,1,1,2,2,-1,0,1,-1,-1,-1,-1,-1,-1,1,0,-2,-1,-1,0,-2,2,-1,-4,0,1,0,0,0,0,0,0,0,0,0,0,0,0,0,0,0,0,0,0,0,0,0,0,0,0,0,0,0,0,0,0,0,0,0,0,0,0,0,0,0,0,0,0,0,0,0,0,0,0,0,0,0,0,0,0,0,0,0,0,0,0,0,0,0,0,0,0,0,0,0,0,0,0,0,0,0,0,0,0,0,0,0,0,0,0,0,0,0,0,0,0,0,0,0,0,0,0,0,0,0,0,0,0,0,0,0,0,0,0,0,0,0,0,0,0,0,0,0,0,0,0,0,0,0,0,0,0,0,0,0,0,0,0,0,0,0,0,0,0,0,0,0,0,0,0,0,0,0,0,0,0,0,0,0,0,0,0,0,0,0,0,0,0,0,0,0,0,0,0,0,0,0,0,0,0,0,0,0,0,0,0,0,0,0,0,0,0,0,0,0,0,0,0,0,0,0,0,0,0,0,0,0,0,0,0,0,0,0,0,0,0,0,0,0,0,0,0,0,0,0,0,0,0,0,0,0,0,0,0,0,0,0,0,0,0,0,0,0,0,0,0,0,0,0,0,0,0,0,0,0,0,0,0,0,0,0,0,0,0,0,0,0,0,0,0,0,0,0,0,0,0,0,0,0,0,0,0,0,0,0,0,0,0,0,0,0,0,0,0,0,0,0,0,0,0,0,0,0,0,0,0,0,0,0,0,0,0,0,0,0,0,0,0,0,0,0,0,0,0,0,0,0,0,0,0,0,0,0,0,0,0,0,0,0,0,0,0,0,0,0,0,0,0,0,0,0,0,0,0,0,0,0,0,0,0,0,0,0,0,0,0,0,0,0,0,0,0,0,0,0,0,0,0,0,0,0,0,0,0,0,0,0,0,0,0,0,0,0,0,0,0,0,0,0,0,0,0,0,0,0,0,0,0,0,0,0,0,0,0,0,0,0,0,0,0,0,0,0,0,0,0,0,0,0,0,0,0,0,0,0,0,0,0,0,0,0,0,0,0,0,0,0,0,0,0,0,0,0,0,0,0,0,0,0,0,0,0,0,0,0,0,0,0,0,0,0,0,0,0,0,0
920,906,914,920,919,930,938,947,936,912,903,929,954,961,950,938,915,884,860,835,822,831,838,844,856,866,870,872,878,881,877,867,856,847,838,823,809,794,781,774,767,760,749,729,698,693,706,728,749,770,787,785,775,756,741,722,703,687,664,641,633,627,616,598,584,588,592,579,558,543,535,536,536,533,526,510,502,494,481,470,459,436,408,390,406,434,442,430,406,389,398,404,407,416,430,445,460,464,454,474,506,516,506,484,462,439,437,458,480,478,459,469,487,492,478,462,437,415,409,410,401,392,373,369,384,398,401,397,410,425,433,434,446,465,461,435,417,394,382,389,391,402,410,417,432,460,489,521,554,554,534,512,492,480,467,455,449,466,485,497,502,515,527,521,508,497,487,489,488,492,501,515,520,504,474,452,447,450,452,470,491,507,517,535,560,588,611,630,643,654,672,694,704,708,719,736,761,797,833,867,906,944,981,1016,1044,1047,1064,1089,1089,1083,1090,1109,1133,1185,1241,1270,1284,1297,1318,1341,1364,1382,1400,1418,1433,1442,1444,1442,1439,1435,1428,1418,1409,1396,1386,1376,1369,1358,1344,1333,1318,1299,1284,1268,1258,1249,1231,1207,1187,1168,1154,1143,1146,1148,1147,1142,1132,1118,1105,1097,1086,1075,1067,1061,1050,1026,1003,982,963,951,938,927,917,906,896,889,883,881,878,877,872,866,856,840,832,839,840,835,832,836,844,850,848,835,809,782,762,760,778,798,822,842,838,809,776,759,751,753,776,806,830,849,860,865,875,891,906,920,938,954,971,987,998,1009,1024,1041,1061,1075,1087,1094,1085,1069,1066,1070,1066,1054,1043,1036,1031,1021,1019,1025,1033,1046,1052,1057,1041,1018,996,989,992,1002,1015,1033,1049,1068,1088,1109,1136,1168,1192,1211,1219,1219,1215,1211,1203,1185,1141,1091,1053,1017,1028,1039,1025,1013,1014,1022,1030,1047,1064,1079,1086,1089,1089,1090,1084,1074,1067,1063,1057,1048,1036,1021,1002,975,939,907,860,821,783,737,702,676,662,650,636,626,618,614,628,649,658,659,658,658,645,609,575,538,502,468,433,413,401,384,356,336,330,343,371,393,392,362,336,310,307,312,330,358,389,423,458,464,449,429,413,394,372,358,337,319,306,295,295,294,286,284,286,294,308,318,310,294,283,273,267,264,249,230,215,210,199,191,185,176,172,166,152,130,113,93,72,57,52,53,49,46,43,40,38,34,34,33,32,30,28,27,27,26,25,26,26,24,22,23,23,21,20,20,20,18,16,14,14,15,16,14,14,15,13,12,12,11,10,10,8,9,11,10,11,10,10,8,7,7,7,7,10,7,6,5,5,6,5,6,4,5,4,3,2,3,2,3,3,3,3,2,2,3,2,1,0,2,0,-2,-1,0,1,1,1,0,2,3,1,1,2,1,0,-1,-1,-1,-1,0,1,0,-1,-1,-1,-2,1,-1,-1,-1,-1,2,0,0,0,0,0,0,0,0,0,0,0,0,0,0,0,0,0,0,0,0,0,0,0,0,0,0,0,0,0,0,0,0,0,0,0,0,0,0,0,0,0,0,0,0,0,0,0,0,0,0,0,0,0,0,0,0,0,0,0,0,0,0,0,0,0,0,0,0,0,0,0,0,0,0,0,0,0,0,0,0,0,0,0,0,0,0,0,0,0,0,0,0,0,0,0,0,0,0,0,0,0,0,0,0,0,0,0,0,0,0,0,0,0,0,0,0,0,0,0,0,0,0,0,0,0,0,0,0,0,0,0,0,0,0,0,0,0,0,0,0,0,0,0,0,0,0,0,0,0,0,0,0,0,0,0,0,0,0,0,0,0,0,0,0,0,0,0,0,0,0,0,0,0,0,0,0,0,0,0,0,0,0,0,0,0,0,0,0,0,0,0,0,0,0,0,0,0,0,0,0,0,0,0,0,0,0,0,0,0,0,0,0,0,0,0,0,0,0,0,0,0,0,0,0,0,0,0,0,0,0,0,0,0,0,0,0,0,0,0,0,0,0,0,0,0,0,0,0,0,0,0,0,0,0,0,0,0,0,0,0,0,0,0,0,0,0,0,0,0,0,0,0,0,0,0,0,0,0,0,0,0,0,0,0,0,0,0,0,0,0,0,0,0,0,0,0,0,0,0,0,0,0,0,0,0,0,0,0,0,0,0,0,0,0,0,0,0,0,0,0,0,0,0,0,0,0,0,0,0,0,0,0,0,0,0,0,0,0,0,0,0,0,0,0,0,0,0,0,0,0,0,0,0,0,0,0,0,0,0,0,0,0,0,0,0,0,0,0,0,0,0,0,0,0,0,0,0,0,0,0,0,0,0,0,0,0,0,0,0,0,0,0,0,0,0,0,0,0,0,0,0,0,0,0,0,0,0,0,0,0,0,0,0,0,0,0,0,0,0,0,0,0,0,0,0,0,0,0,0,0,0,0,0,0,0,0,0,0,0,0,0,0,0,0,0,0,0,0,0,0,0,0,0,0,0,0,0,0,0,0,0,0,0,0,0,0,0,0,0
954,940,942,956,954,956,971,981,968,938,928,946,972,985,981,958,918,885,870,855,857,865,872,876,887,896,901,901,905,903,892,874,852,833,827,817,805,791,779,772,761,747,732,720,701,700,717,734,748,761,766,756,745,741,724,707,685,663,654,640,619,603,598,589,578,573,569,560,547,521,504,496,495,500,499,486,482,479,462,452,445,427,408,394,410,443,456,439,421,411,399,395,408,428,453,477,496,500,488,494,499,490,474,455,438,418,422,443,453,452,435,440,452,447,447,464,458,443,448,447,426,403,378,368,374,403,428,432,440,458,471,472,475,477,460,432,414,394,385,402,417,432,445,451,457,477,498,526,542,538,524,504,487,479,466,464,460,463,491,505,512,526,540,539,530,517,509,509,502,499,503,504,500,483,456,441,443,448,455,476,498,506,515,535,560,586,613,638,660,683,705,730,745,753,764,775,787,813,845,870,895,926,960,984,987,1005,1020,1021,1014,1015,1034,1072,1127,1182,1204,1223,1237,1249,1267,1304,1349,1377,1398,1414,1433,1442,1440,1429,1424,1415,1410,1392,1378,1364,1354,1344,1328,1314,1306,1307,1298,1294,1279,1254,1238,1226,1217,1204,1189,1171,1154,1142,1137,1130,1119,1109,1095,1084,1075,1065,1057,1048,1036,1024,1016,1003,992,983,974,957,937,922,913,905,899,894,889,886,884,883,877,873,874,866,850,836,821,811,809,823,831,835,835,833,815,791,765,746,748,763,789,818,833,810,774,746,733,754,784,809,829,841,841,839,848,863,881,901,919,926,944,958,973,988,1009,1032,1052,1071,1083,1089,1081,1068,1057,1049,1043,1038,1032,1026,1016,999,989,993,1006,1011,1016,1029,1027,1007,986,978,979,988,1000,1014,1032,1053,1085,1114,1142,1169,1192,1208,1211,1204,1200,1208,1216,1212,1169,1125,1092,1076,1085,1085,1064,1057,1063,1075,1084,1097,1116,1122,1121,1114,1112,1112,1110,1102,1097,1092,1079,1056,1031,1012,986,967,930,899,858,815,784,749,732,718,710,705,688,673,670,669,680,704,717,709,692,670,631,593,559,520,488,465,448,433,413,381,356,356,360,381,411,435,424,398,370,330,333,334,338,365,388,423,452,462,443,426,409,391,365,342,323,307,288,274,270,269,262,248,244,250,260,271,277,262,250,236,231,233,230,211,199,190,176,157,158,160,156,149,137,113,94,81,67,60,57,53,48,46,42,38,36,33,33,33,32,32,32,29,31,29,27,27,27,27,24,24,23,21,21,20,18,18,16,14,12,14,14,12,12,14,14,12,11,10,9,9,9,10,9,9,10,9,8,9,9,8,6,7,8,6,7,7,5,6,5,3,4,4,4,2,2,1,0,3,2,2,1,1,2,1,1,1,1,2,-1,-2,1,0,0,-1,0,0,1,0,0,0,0,0,1,1,-1,-2,0,0,0,0,0,-1,0,-1,-2,0,-2,2,3,2,1,0,0,0,0,0,0,0,0,0,0,0,0,0,0,0,0,0,0,0,0,0,0,0,0,0,0,0,0,0,0,0,0,0,0,0,0,0,0,0,0,0,0,0,0,0,0,0,0,0,0,0,0,0,0,0,0,0,0,0,0,0,0,0,0,0,0,0,0,0,0,0,0,0,0,0,0,0,0,0,0,0,0,0,0,0,0,0,0,0,0,0,0,0,0,0,0,0,0,0,0,0,0,0,0,0,0,0,0,0,0,0,0,0,0,0,0,0,0,0,0,0,0,0,0,0,0,0,0,0,0,0,0,0,0,0,0,0,0,0,0,0,0,0,0,0,0,0,0,0,0,0,0,0,0,0,0,0,0,0,0,0,0,0,0,0,0,0,0,0,0,0,0,0,0,0,0,0,0,0,0,0,0,0,0,0,0,0,0,0,0,0,0,0,0,0,0,0,0,0,0,0,0,0,0,0,0,0,0,0,0,0,0,0,0,0,0,0,0,0,0,0,0,0,0,0,0,0,0,0,0,0,0,0,0,0,0,0,0,0,0,0,0,0,0,0,0,0,0,0,0,0,0,0,0,0,0,0,0,0,0,0,0,0,0,0,0,0,0,0,0,0,0,0,0,0,0,0,0,0,0,0,0,0,0,0,0,0,0,0,0,0,0,0,0,0,0,0,0,0,0,0,0,0,0,0,0,0,0,0,0,0,0,0,0,0,0,0,0,0,0,0,0,0,0,0,0,0,0,0,0,0,0,0,0,0,0,0,0,0,0,0,0,0,0,0,0,0,0,0,0,0,0,0,0,0,0,0,0,0,0,0,0,0,0,0,0,0,0,0,0,0,0,0,0,0,0,0,0,0,0,0,0,0,0,0,0,0,0,0,0,0,0,0,0,0,0,0,0,0,0,0,0,0,0,0,0,0,0,0,0,0,0,0,0,0,0,0,0,0,0,0,0,0,0,0,0,0,0,0,0,0,0,0,0,0,0,0,0,0,0,0,0,0,0,0,0,0,0,0,0,0,0,0,0,0,0,0,0,0,0,0,0,0,0,0,0,0,0
988,973,966,984,985,980,988,995,988,965,961,978,993,1003,991,961,928,911,899,885,888,903,910,914,921,925,926,930,927,919,907,889,860,839,826,811,798,784,770,758,748,734,717,704,698,704,720,741,759,763,752,730,711,706,702,697,679,658,638,627,618,615,617,609,597,583,572,569,562,542,521,499,477,463,460,455,449,444,434,422,411,406,401,404,417,438,460,460,451,434,412,401,411,429,457,492,519,529,524,524,511,487,461,439,428,413,408,414,422,425,419,420,420,411,431,453,455,458,460,442,404,373,367,369,385,415,441,455,470,487,502,510,509,495,466,436,415,392,388,403,425,449,467,482,490,505,527,548,550,534,518,499,488,476,476,481,471,462,474,487,500,520,544,559,556,550,531,521,508,502,495,479,469,451,436,437,445,456,464,469,479,487,506,533,566,596,617,631,650,668,699,733,758,772,776,778,784,805,827,852,883,914,932,935,937,962,962,940,942,967,1003,1046,1097,1137,1152,1157,1176,1202,1232,1269,1310,1335,1346,1364,1398,1413,1415,1407,1399,1391,1381,1369,1356,1344,1329,1317,1301,1284,1270,1260,1252,1244,1229,1209,1190,1179,1171,1159,1149,1143,1133,1126,1121,1115,1114,1109,1098,1081,1061,1048,1035,1023,1008,994,986,982,974,971,965,954,941,924,913,907,901,897,895,894,888,883,872,864,865,873,872,859,840,820,801,807,818,818,819,819,805,788,768,752,731,738,763,796,821,811,774,739,724,747,776,798,814,824,822,818,824,838,858,876,886,892,909,930,944,967,985,1008,1034,1062,1075,1067,1053,1048,1041,1030,1021,1018,1012,1007,998,985,967,961,967,971,984,998,1006,994,972,962,968,979,993,1007,1029,1056,1091,1125,1157,1175,1189,1192,1184,1176,1177,1187,1207,1218,1195,1170,1143,1129,1127,1128,1108,1109,1116,1127,1138,1138,1142,1144,1147,1137,1131,1134,1138,1137,1136,1130,1107,1081,1054,1028,1000,970,939,907,870,824,793,782,776,767,767,756,738,729,726,727,738,756,749,716,679,647,607,578,541,514,492,476,462,433,402,380,372,390,391,397,429,462,459,425,378,353,368,365,355,372,394,425,450,452,436,416,393,378,357,333,311,298,280,266,257,246,240,229,213,209,208,219,234,235,222,214,200,196,194,184,174,164,150,138,133,130,121,114,109,96,87,83,72,73,70,62,57,50,40,40,37,34,33,34,33,33,33,31,30,29,27,26,26,26,25,24,22,21,19,18,17,18,17,17,15,15,14,12,12,12,11,10,9,10,8,8,9,10,11,8,8,9,8,9,10,8,7,7,8,5,5,5,5,5,4,4,5,4,5,4,1,1,0,1,3,2,1,-1,-1,-1,0,2,1,-1,-2,-2,0,-2,-1,0,-2,1,0,0,0,-1,-1,0,0,-1,-1,0,0,1,1,0,0,0,-1,0,0,-1,0,2,1,3,1,0,0,0,0,0,0,0,0,0,0,0,0,0,0,0,0,0,0,0,0,0,0,0,0,0,0,0,0,0,0,0,0,0,0,0,0,0,0,0,0,0,0,0,0,0,0,0,0,0,0,0,0,0,0,0,0,0,0,0,0,0,0,0,0,0,0,0,0,0,0,0,0,0,0,0,0,0,0,0,0,0,0,0,0,0,0,0,0,0,0,0,0,0,0,0,0,0,0,0,0,0,0,0,0,0,0,0,0,0,0,0,0,0,0,0,0,0,0,0,0,0,0,0,0,0,0,0,0,0,0,0,0,0,0,0,0,0,0,0,0,0,0,0,0,0,0,0,0,0,0,0,0,0,0,0,0,0,0,0,0,0,0,0,0,0,0,0,0,0,0,0,0,0,0,0,0,0,0,0,0,0,0,0,0,0,0,0,0,0,0,0,0,0,0,0,0,0,0,0,0,0,0,0,0,0,0,0,0,0,0,0,0,0,0,0,0,0,0,0,0,0,0,0,0,0,0,0,0,0,0,0,0,0,0,0,0,0,0,0,0,0,0,0,0,0,0,0,0,0,0,0,0,0,0,0,0,0,0,0,0,0,0,0,0,0,0,0,0,0,0,0,0,0,0,0,0,0,0,0,0,0,0,0,0,0,0,0,0,0,0,0,0,0,0,0,0,0,0,0,0,0,0,0,0,0,0,0,0,0,0,0,0,0,0,0,0,0,0,0,0,0,0,0,0,0,0,0,0,0,0,0,0,0,0,0,0,0,0,0,0,0,0,0,0,0,0,0,0,0,0,0,0,0,0,0,0,0,0,0,0,0,0,0,0,0,0,0,0,0,0,0,0,0,0,0,0,0,0,0,0,0,0,0,0,0,0,0,0,0,0,0,0,0,0,0,0,0,0,0,0,0,0,0,0,0,0,0,0,0,0,0,0,0,0,0,0,0,0,0,0,0,0,0,0,0,0,0,0,0,0,0,0,0,0,0,0,0,0,0,0,0,0,0,0,0,0,0,0,0,0,0,0,0,0,0,0,0,0,0,0,0,0,0,0,0,0,0,0
