468,459,454,449,448,447,447,444,443,441,448,456,448,439,429,430,447,465,463,448,443,459,480,478,465,455,441,430,421,412,409,410,402,395,392,391,390,388,386,385,383,382,377,369,367,373,382,386,398,420,440,455,467,463,441,415,393,375,361,351,342,343,356,363,369,380,392,405,412,425,429,435,445,450,444,444,444,445,447,449,456,464,476,488,505,522,529,531,531,535,537,537,536,542,539,531,524,519,529,535,534,544,559,571,581,590,602,611,619,624,626,627,622,616,609,603,596,590,583,575,571,575,579,587,602,616,623,633,641,648,654,656,649,634,625,626,637,648,658,669,675,677,680,685,684,686,690,692,692,690,686,678,667,654,641,627,611,600,585,570,557,540,522,502,479,445,427,409,392,391,400,416,426,422,402,385,377,371,361,354,353,348,335,333,332,327,326,326,327,326,324,322,321,319,318,317,315,315,313,312,312,312,310,308,308,307,305,303,300,300,299,298,296,295,293,293,291,290,287,285,284,283,281,277,271,263,258,254,252,253,255,255,253,251,246,244,240,237,233,231,226,221,216,213,213,213,206,205,208,208,208,206,203,202,201,200,199,198,196,196,195,195,193,192,189,184,182,182,184,184,187,188,189,191,190,190,190,187,184,179,171,171,173,179,183,181,180,180,180,182,183,186,189,189,189,189,190,185,179,175,174,175,174,171,167,160,148,141,139,141,149,150,149,150,153,160,165,166,168,172,172,177,179,180,179,177,181,179,173,177,186,192,193,193,192,185,174,170,179,189,195,200,201,203,203,201,197,193,185,182,177,172,168,162,156,152,149,145,144,143,142,139,139,138,136,137,137,134,132,132,131,127,124,120,120,120,121,120,119,118,116,113,111,110,113,113,115,112,105,100,96,95,95,94,95,94,93,90,86,85,85,87,89,89,88,88,88,85,83,84,83,83,84,84,83,82,80,79,77,79,79,79,79,78,78,78,76,75,75,73,71,71,72,71,71,70,70,71,72,71,70,69,69,69,69,70,70,71,72,72,70,70,70,76,77,77,77,79,81,88,100,118,136,149,155,146,128,117,112,108,102,102,103,104,105,108,112,110,106,112,120,117,109,99,92,82,76,72,70,69,69,71,74,77,82,88,85,79,74,71,67,71,79,86,93,100,107,106,105,108,107,105,104,107,115,124,130,133,133,131,119,111,102,104,104,100,95,94,91,87,83,85,88,91,96,106,114,126,141,157,167,169,170,174,176,181,190,202,221,237,241,248,266,277,271,259,246,236,228,221,216,212,207,200,196,192,189,188,184,192,200,200,194,190,182,173,166,160,154,148,149,159,167,172,173,173,171,163,150,139,126,116,107,101,101,105,111,115,117,116,112,108,102,98,100,102,105,104,93,85,83,88,94,93,84,74,70,75,80,84,85,81,75,74,71,69,66,61,53,47,42,41,40,39,36,38,43,41,41,43,42,42,47,50,48,43,43,44,42,43,44,43,43,46,47,43,38,38,35,37,37,37,35,33,30,30,31,32,30,27,28,28,27,28,27,27,29,31,32,38,47,50,49,47,48,49,51,49,51,50,48,46,41,42,40,42,49,56,64,69,77,80,76,73,70,66,59,57,52,44,38,33,26,20,15,8,3,2,2,0,0,0,0,0,0,0,0,0,0,0,0,0,0,0,0,0,0,0,0,0,0,0,0,0,0,0,0,0,0,0,0,0,0,0,0,0,0,0,0,0,0,0,0,0,0,0,0,0,0,0,0,0,0,0,0,0,0,0,0,0,0,0,0,0,0,0,0,0,0,0,0,0,0,0,0,0,0,0,0,0,0,0,0,0,0,0,0,0,0,0,0,0,0,0,0,0,0,0,0,0,0,0,0,0,0,0,0,0,0,0,0,0,0,0,0,0,0,0,0,0,0,0,0,0,0,0,0,0,0,0,0,0,0,0,0,0,0,0,0,0,0,0,0,0,0,0,0,0,0,0,0,0,0,0,0,0,0,0,0,0,0,0,0,0,0,0,0,0,0,0,0,0,0,0,0,0,0,0,0,0,0,0,0,0,0,0,0,0,0,0,0,0,0,0,0,0,0,0,0,0,0,0,0,0,0,0,0,0,0,0,0,0,0,0,0,0,0,0,0,0,0,0,0,0,0,0,0,0,0,0,0,0,0,0,0,0,0,0,0,0,0,0,0,0,0,0,0,0,0,0,0,0,0,0,0,0,0,0,0,0,0,0,0,0,0,0,0,0,0,0,0,0,0,0,0,0,0,0,0,0,0,0,0,0,0,0,0,0,0,0,0,0,0,0,0,0,0,0,0,0,0,0,0,0,0,0,0,0,0,0,0,0,0,0,0,0,0,0,0,0,0,0,0
484,476,464,457,454,450,444,442,439,435,436,437,434,431,429,424,425,427,429,429,435,460,477,474,467,460,448,437,427,417,410,403,397,399,408,417,411,407,405,408,402,395,392,386,375,369,368,378,399,420,438,450,452,445,425,404,388,374,356,343,337,343,354,361,367,379,391,396,397,401,401,406,420,420,417,418,420,423,430,439,451,463,476,486,500,516,531,545,553,557,560,558,554,552,545,542,540,539,552,559,564,572,574,574,571,576,583,589,595,599,603,606,598,595,592,586,583,579,581,579,582,588,595,613,631,645,655,668,677,684,688,688,685,680,673,663,665,676,679,680,680,680,680,679,677,674,674,675,675,673,671,667,660,650,636,622,608,596,580,562,544,524,504,486,462,434,417,409,399,397,406,417,427,424,413,402,391,381,372,364,360,357,346,342,339,337,334,331,330,326,323,320,318,318,318,318,316,314,314,313,312,311,310,309,306,306,304,301,299,299,300,297,294,295,294,289,289,289,286,286,284,282,282,281,276,271,267,263,260,257,258,259,256,255,252,250,245,240,236,230,223,220,221,221,220,216,213,207,205,203,203,203,202,201,199,199,197,194,193,193,193,190,188,184,183,186,187,185,190,190,195,197,197,195,194,193,192,186,181,174,173,180,181,181,182,182,182,185,188,189,189,188,189,190,191,192,192,190,186,176,169,169,168,164,160,152,143,142,144,142,144,150,154,156,157,159,162,164,163,168,174,179,181,182,184,186,190,189,183,182,187,192,195,198,199,191,177,174,185,200,210,212,211,209,206,200,197,192,187,181,174,169,165,163,159,153,147,141,137,135,133,131,130,128,125,124,124,121,117,116,117,121,125,125,124,124,127,127,123,118,115,110,107,105,105,107,112,112,108,104,99,96,97,95,93,94,94,93,91,90,89,88,87,89,91,88,85,85,85,84,83,85,84,84,83,81,79,81,79,79,76,77,79,78,77,78,76,74,75,74,73,72,72,71,71,70,70,70,70,70,70,69,68,69,69,69,70,71,70,70,69,69,70,70,71,71,72,73,77,80,91,107,122,132,140,140,130,123,117,110,106,112,113,113,112,117,126,129,123,117,123,128,123,111,102,91,79,74,73,71,68,67,68,69,71,75,74,72,68,65,66,72,77,82,87,94,100,107,111,115,119,122,120,116,115,118,124,131,131,121,110,91,84,88,89,85,80,79,78,80,87,90,94,98,100,113,123,136,140,145,147,150,153,154,154,161,175,196,224,248,259,268,275,275,269,254,235,226,216,206,200,197,198,191,185,179,176,173,175,178,181,186,186,184,182,179,176,171,167,163,166,170,179,185,186,187,177,165,155,147,135,125,116,111,115,115,114,115,116,118,120,117,111,108,109,111,109,106,95,88,90,96,101,101,92,82,81,80,84,88,91,90,87,86,84,80,76,72,63,55,49,47,42,41,35,35,37,36,34,33,33,34,34,37,39,37,34,36,38,39,38,39,38,39,40,38,35,35,32,31,30,31,30,27,27,27,26,28,27,26,26,26,23,23,22,21,24,23,23,28,33,33,35,35,30,33,36,36,37,38,36,35,31,26,28,32,35,39,44,50,54,58,57,55,57,57,53,53,48,40,38,34,23,19,11,4,2,2,2,0,0,0,0,0,0,0,0,0,0,0,0,0,0,0,0,0,0,0,0,0,0,0,0,0,0,0,0,0,0,0,0,0,0,0,0,0,0,0,0,0,0,0,0,0,0,0,0,0,0,0,0,0,0,0,0,0,0,0,0,0,0,0,0,0,0,0,0,0,0,0,0,0,0,0,0,0,0,0,0,0,0,0,0,0,0,0,0,0,0,0,0,0,0,0,0,0,0,0,0,0,0,0,0,0,0,0,0,0,0,0,0,0,0,0,0,0,0,0,0,0,0,0,0,0,0,0,0,0,0,0,0,0,0,0,0,0,0,0,0,0,0,0,0,0,0,0,0,0,0,0,0,0,0,0,0,0,0,0,0,0,0,0,0,0,0,0,0,0,0,0,0,0,0,0,0,0,0,0,0,0,0,0,0,0,0,0,0,0,0,0,0,0,0,0,0,0,0,0,0,0,0,0,0,0,0,0,0,0,0,0,0,0,0,0,0,0,0,0,0,0,0,0,0,0,0,0,0,0,0,0,0,0,0,0,0,0,0,0,0,0,0,0,0,0,0,0,0,0,0,0,0,0,0,0,0,0,0,0,0,0,0,0,0,0,0,0,0,0,0,0,0,0,0,0,0,0,0,0,0,0,0,0,0,0,0,0,0,0,0,0,0,0,0,0,0,0,0,0,0,0,0,0,0,0,0,0,0,0,0,0,0,0,0,0,0,0,0,0,0,0,0,0,0
496,493,479,471,472,472,465,454,447,444,440,437,434,430,429,427,422,418,416,418,425,451,463,458,452,451,455,456,447,436,428,421,414,415,435,448,439,428,423,427,428,420,416,407,393,388,381,372,377,392,401,411,418,411,399,390,383,370,352,337,336,341,348,359,367,370,375,377,378,384,385,384,392,396,397,399,401,405,415,431,453,468,479,492,501,515,528,542,554,563,568,568,562,552,540,535,538,542,545,556,570,585,591,593,592,591,587,590,594,598,600,596,593,592,593,593,590,587,590,593,600,608,613,622,646,668,684,700,712,718,721,720,717,719,716,704,697,699,701,701,699,696,690,685,681,673,670,663,660,656,653,649,643,635,621,603,584,570,553,540,520,496,473,455,440,427,418,411,405,407,417,422,424,420,412,402,392,378,369,364,357,355,351,345,343,340,337,332,330,328,324,323,320,318,317,316,314,312,312,312,311,308,307,307,306,305,303,302,303,301,298,295,293,291,290,288,288,288,286,286,283,281,281,279,277,276,273,272,269,267,265,264,261,258,255,252,247,240,232,225,226,229,228,225,221,218,217,213,211,208,205,203,202,202,204,202,197,194,193,191,190,190,192,191,191,194,195,191,194,195,197,201,199,198,197,195,193,187,178,173,177,184,188,186,185,183,185,187,190,192,193,194,193,193,193,192,192,191,188,182,171,163,161,159,155,145,141,148,155,151,145,143,145,153,160,166,170,173,172,169,175,182,186,189,192,195,197,198,195,193,197,198,200,203,205,199,185,178,184,196,206,212,214,213,207,199,194,190,186,182,177,175,173,169,162,156,151,145,139,135,130,129,127,124,120,119,119,117,117,121,119,115,115,118,120,123,128,124,115,108,108,107,107,105,104,105,105,104,107,106,101,96,97,94,93,95,96,95,92,91,90,89,90,90,87,87,86,85,86,85,83,82,84,82,82,82,80,80,81,80,79,79,78,77,78,77,75,75,75,75,74,73,72,72,71,70,69,69,71,70,71,70,69,69,69,70,69,69,70,70,69,70,68,66,67,68,68,70,74,75,80,89,104,113,118,120,119,120,124,120,117,121,129,130,124,121,130,139,139,132,126,128,128,119,108,95,85,78,77,76,71,69,67,66,66,65,66,65,65,67,74,81,86,87,85,87,90,93,99,106,111,118,126,130,130,133,133,132,128,115,101,85,73,74,74,74,73,76,80,84,94,106,111,112,110,112,120,128,131,126,123,126,128,133,141,151,168,185,205,224,241,249,251,252,251,244,231,218,212,202,185,177,175,176,176,168,162,158,158,162,169,171,171,168,168,165,163,164,162,159,160,166,171,175,176,178,175,168,159,151,142,133,124,121,129,129,122,122,124,126,128,128,125,120,120,123,121,113,100,96,97,103,108,109,102,96,95,95,97,99,98,98,94,88,83,77,74,69,63,60,51,43,40,39,36,37,38,36,34,33,34,35,33,33,33,31,31,33,34,34,34,35,33,33,34,34,33,31,29,29,29,27,27,24,25,27,24,24,24,23,23,23,22,21,20,19,20,19,19,19,17,20,23,24,21,21,22,24,25,28,26,24,22,20,21,23,23,24,29,33,34,35,38,40,40,41,41,42,41,38,34,27,19,13,7,3,3,3,2,0,0,0,0,0,0,0,0,0,0,0,0,0,0,0,0,0,0,0,0,0,0,0,0,0,0,0,0,0,0,0,0,0,0,0,0,0,0,0,0,0,0,0,0,0,0,0,0,0,0,0,0,0,0,0,0,0,0,0,0,0,0,0,0,0,0,0,0,0,0,0,0,0,0,0,0,0,0,0,0,0,0,0,0,0,0,0,0,0,0,0,0,0,0,0,0,0,0,0,0,0,0,0,0,0,0,0,0,0,0,0,0,0,0,0,0,0,0,0,0,0,0,0,0,0,0,0,0,0,0,0,0,0,0,0,0,0,0,0,0,0,0,0,0,0,0,0,0,0,0,0,0,0,0,0,0,0,0,0,0,0,0,0,0,0,0,0,0,0,0,0,0,0,0,0,0,0,0,0,0,0,0,0,0,0,0,0,0,0,0,0,0,0,0,0,0,0,0,0,0,0,0,0,0,0,0,0,0,0,0,0,0,0,0,0,0,0,0,0,0,0,0,0,0,0,0,0,0,0,0,0,0,0,0,0,0,0,0,0,0,0,0,0,0,0,0,0,0,0,0,0,0,0,0,0,0,0,0,0,0,0,0,0,0,0,0,0,0,0,0,0,0,0,0,0,0,0,0,0,0,0,0,0,0,0,0,0,0,0,0,0,0,0,0,0,0,0,0,0,0,0,0,0,0,0,0,0,0,0,0,0,0,0,0,0,0,0,0,0,0,0,0,0,0
490,488,480,481,484,484,480,474,469,465,462,461,457,456,453,450,443,429,417,410,412,424,431,433,430,433,443,452,454,453,445,437,432,426,430,440,451,448,442,443,450,449,436,419,408,411,409,391,372,362,367,383,395,386,380,381,382,367,344,335,339,345,354,357,358,364,366,361,364,366,370,374,378,379,385,389,394,399,412,432,452,473,483,490,499,509,519,535,549,562,567,563,556,543,533,521,517,526,536,555,572,590,603,610,612,613,609,607,606,607,608,611,608,609,609,610,615,619,622,627,633,643,646,636,647,678,704,722,735,747,752,750,746,747,741,732,726,725,725,726,722,718,711,701,692,681,673,663,653,645,636,630,624,616,596,556,534,522,504,494,482,468,454,441,430,420,413,410,412,416,420,424,425,420,408,398,389,377,366,360,355,352,347,344,345,340,336,334,332,328,324,323,321,320,318,316,314,312,311,309,307,308,306,304,304,304,302,301,301,298,296,293,293,291,288,286,286,287,286,284,282,283,280,279,278,277,274,275,273,271,270,267,263,258,255,252,246,238,229,226,232,232,230,227,224,221,218,217,217,215,212,209,207,206,208,202,198,201,205,205,200,198,199,199,202,203,201,197,197,199,200,202,201,200,198,198,195,187,178,174,181,185,188,189,189,189,190,188,189,191,193,195,197,197,195,193,193,192,191,188,180,169,160,153,147,143,146,154,157,159,156,150,145,148,158,165,172,178,181,180,177,180,185,191,197,200,204,207,207,204,204,205,207,208,210,206,192,181,184,196,207,216,218,217,213,206,200,196,192,189,186,183,179,172,166,159,154,149,146,143,137,134,130,124,117,117,121,128,137,137,130,120,113,110,110,111,113,112,109,105,105,109,110,108,106,105,104,102,103,104,101,98,97,98,97,97,96,94,92,93,92,90,91,90,89,88,87,86,85,86,85,83,84,82,81,82,83,80,80,79,79,80,80,78,78,76,76,76,76,76,76,74,72,72,73,72,70,70,69,69,71,72,69,68,69,68,68,70,71,70,69,69,68,66,63,65,70,69,71,71,69,69,77,88,98,102,103,105,113,119,117,122,133,142,138,132,132,133,136,140,137,134,133,125,112,96,88,87,88,86,81,76,72,66,63,63,62,61,65,75,86,96,103,105,104,101,100,100,103,105,110,114,120,124,133,140,142,132,120,109,100,83,70,66,65,69,70,74,87,95,103,114,127,130,128,128,128,126,120,113,106,103,104,118,130,138,149,165,176,191,208,220,226,229,229,226,219,212,204,194,176,159,151,151,151,146,145,141,139,147,159,162,158,156,153,150,148,148,146,146,145,150,154,157,161,162,164,163,161,155,145,137,128,128,135,140,140,139,139,139,140,140,139,136,133,133,129,123,111,109,109,109,114,116,116,115,111,110,107,104,98,93,87,78,71,65,60,60,56,49,44,38,36,38,43,45,45,43,41,39,39,39,38,39,37,36,33,30,28,29,31,32,30,29,30,31,30,30,29,28,28,25,24,23,23,23,23,22,20,19,20,20,22,23,21,19,18,17,16,16,15,16,16,16,16,16,16,17,17,16,17,16,15,16,15,15,16,14,13,16,17,19,21,25,27,27,28,29,26,25,21,16,9,6,3,3,3,2,1,0,0,0,0,0,0,0,0,0,0,0,0,0,0,0,0,0,0,0,0,0,0,0,0,0,0,0,0,0,0,0,0,0,0,0,0,0,0,0,0,0,0,0,0,0,0,0,0,0,0,0,0,0,0,0,0,0,0,0,0,0,0,0,0,0,0,0,0,0,0,0,0,0,0,0,0,0,0,0,0,0,0,0,0,0,0,0,0,0,0,0,0,0,0,0,0,0,0,0,0,0,0,0,0,0,0,0,0,0,0,0,0,0,0,0,0,0,0,0,0,0,0,0,0,0,0,0,0,0,0,0,0,0,0,0,0,0,0,0,0,0,0,0,0,0,0,0,0,0,0,0,0,0,0,0,0,0,0,0,0,0,0,0,0,0,0,0,0,0,0,0,0,0,0,0,0,0,0,0,0,0,0,0,0,0,0,0,0,0,0,0,0,0,0,0,0,0,0,0,0,0,0,0,0,0,0,0,0,0,0,0,0,0,0,0,0,0,0,0,0,0,0,0,0,0,0,0,0,0,0,0,0,0,0,0,0,0,0,0,0,0,0,0,0,0,0,0,0,0,0,0,0,0,0,0,0,0,0,0,0,0,0,0,0,0,0,0,0,0,0,0,0,0,0,0,0,0,0,0,0,0,0,0,0,0,0,0,0,0,0,0,0,0,0,0,0,0,0,0,0,0,0,0,0,0,0,0,0,0,0,0,0,0,0,0,0,0,0,0,0,0,0,0,0
472,469,466,470,467,460,460,461,463,468,467,467,472,472,469,464,460,452,443,424,411,409,406,408,412,417,426,435,438,441,440,440,438,437,437,439,446,455,458,463,469,461,449,438,429,430,433,422,402,380,365,358,356,356,355,360,367,354,339,334,334,337,344,354,378,393,400,389,387,394,396,395,396,387,388,405,413,410,417,426,442,457,473,485,495,510,523,535,546,558,561,555,544,530,519,508,505,526,545,565,588,602,614,625,636,642,638,634,634,634,635,641,645,648,647,651,658,663,667,674,678,685,689,681,662,671,699,723,740,762,773,774,772,766,759,751,748,751,749,747,745,740,731,721,711,697,683,667,654,641,625,609,602,594,578,548,517,489,469,461,453,447,438,424,421,420,418,416,419,419,417,416,417,413,405,393,385,374,365,360,356,350,347,343,341,339,335,332,331,330,327,325,321,318,316,315,315,311,310,309,307,305,304,303,303,302,300,298,297,294,296,293,292,290,290,288,288,285,284,281,280,282,281,277,277,275,274,274,273,271,272,270,266,263,258,254,246,239,233,234,238,236,234,232,227,224,222,221,222,219,216,212,211,210,208,205,207,209,209,209,208,206,206,206,207,207,205,202,203,202,202,201,199,198,195,192,187,180,173,174,181,185,188,191,192,193,194,192,192,194,195,197,196,194,191,189,188,187,188,188,184,176,164,156,146,148,155,159,162,164,162,157,149,148,155,164,167,171,176,182,181,183,184,189,194,196,201,206,210,211,210,212,212,212,214,212,203,190,186,197,209,220,227,224,221,214,208,204,198,195,190,185,180,174,169,165,162,157,154,149,141,137,129,122,120,127,138,145,143,134,125,117,114,115,114,111,110,108,107,106,110,119,120,115,109,106,104,102,100,99,99,99,99,98,97,96,95,95,95,96,94,92,92,91,89,88,87,88,84,84,86,84,83,82,80,81,82,80,78,78,79,79,79,79,79,77,77,77,77,76,75,74,72,74,75,74,72,71,67,67,69,70,72,70,69,68,70,70,71,70,70,70,69,68,66,67,70,69,68,67,66,62,63,65,70,79,86,90,94,100,106,117,130,140,144,138,131,131,135,137,135,138,134,123,110,98,96,99,102,101,94,87,83,75,66,61,61,61,66,76,87,93,102,109,114,115,111,110,112,114,117,119,118,117,116,121,125,121,113,104,94,81,70,67,69,74,77,77,80,86,95,104,113,120,126,128,126,121,111,104,95,92,93,104,114,120,129,143,156,164,172,182,193,197,202,202,199,195,191,184,168,150,131,125,124,124,118,118,125,136,148,152,147,142,139,137,136,135,133,135,134,135,138,141,146,144,147,151,156,159,154,149,142,139,141,146,150,149,146,142,139,136,134,131,129,131,131,130,126,125,124,122,123,125,126,123,115,108,101,94,86,81,75,69,62,56,50,47,42,39,41,43,45,48,54,58,59,57,54,51,48,49,49,46,44,41,38,35,31,30,28,28,27,27,27,27,28,29,29,26,25,24,22,23,23,22,21,20,21,20,20,20,21,20,18,19,18,18,17,17,16,16,16,15,15,15,14,15,14,14,15,16,15,14,13,13,12,11,10,9,9,9,9,10,12,15,16,14,13,12,11,9,5,5,4,3,2,3,1,0,0,0,0,0,0,0,0,0,0,0,0,0,0,0,0,0,0,0,0,0,0,0,0,0,0,0,0,0,0,0,0,0,0,0,0,0,0,0,0,0,0,0,0,0,0,0,0,0,0,0,0,0,0,0,0,0,0,0,0,0,0,0,0,0,0,0,0,0,0,0,0,0,0,0,0,0,0,0,0,0,0,0,0,0,0,0,0,0,0,0,0,0,0,0,0,0,0,0,0,0,0,0,0,0,0,0,0,0,0,0,0,0,0,0,0,0,0,0,0,0,0,0,0,0,0,0,0,0,0,0,0,0,0,0,0,0,0,0,0,0,0,0,0,0,0,0,0,0,0,0,0,0,0,0,0,0,0,0,0,0,0,0,0,0,0,0,0,0,0,0,0,0,0,0,0,0,0,0,0,0,0,0,0,0,0,0,0,0,0,0,0,0,0,0,0,0,0,0,0,0,0,0,0,0,0,0,0,0,0,0,0,0,0,0,0,0,0,0,0,0,0,0,0,0,0,0,0,0,0,0,0,0,0,0,0,0,0,0,0,0,0,0,0,0,0,0,0,0,0,0,0,0,0,0,0,0,0,0,0,0,0,0,0,0,0,0,0,0,0,0,0,0,0,0,0,0,0,0,0,0,0,0,0,0,0,0,0,0,0,0,0,0,0,0,0,0,0,0,0,0,0,0,0,0,0,0,0,0,0,0,0,0,0,0,0,0,0,0,0,0,0,0,0
456,453,450,448,446,443,444,439,441,443,444,447,450,452,455,453,454,450,447,439,423,410,403,399,400,403,406,411,419,421,419,417,421,424,432,439,444,451,461,470,475,471,460,452,451,450,452,444,427,413,394,367,351,349,350,343,338,335,332,332,333,337,347,364,386,408,419,420,425,425,427,425,414,401,392,402,411,423,426,429,438,450,465,481,496,510,526,539,546,550,548,534,520,508,501,494,501,524,549,570,596,609,624,637,653,666,669,662,666,674,677,682,687,688,691,694,699,704,710,713,716,721,727,719,700,691,693,707,727,750,770,781,784,779,772,767,762,760,763,764,763,758,754,747,735,720,704,687,667,648,624,599,571,555,545,529,506,484,472,463,456,450,443,436,431,427,426,426,423,419,411,408,407,403,398,394,385,376,366,360,356,352,349,346,342,339,336,333,332,330,326,323,320,319,314,313,313,312,311,309,305,299,302,302,300,299,297,296,293,288,288,289,290,288,288,286,287,286,283,280,279,278,277,276,276,274,274,273,273,272,271,268,265,260,257,249,243,239,239,241,242,241,239,238,235,231,228,227,226,223,219,217,218,215,211,207,210,212,214,214,213,210,210,211,211,211,210,208,204,202,199,196,192,191,188,181,178,177,178,177,183,188,191,195,195,195,194,195,196,197,195,194,194,193,187,182,181,179,179,178,175,170,159,153,146,153,165,166,168,171,172,166,154,150,151,155,157,159,160,164,166,171,178,185,191,194,199,203,208,211,212,216,217,214,218,219,212,201,192,197,208,223,228,225,222,219,214,209,205,197,189,185,182,179,174,168,165,159,151,144,139,133,128,123,128,142,146,143,134,127,122,118,122,125,123,120,116,110,109,111,121,126,125,122,116,111,107,105,102,102,102,101,102,103,101,98,98,98,95,93,94,94,92,91,89,91,90,88,87,86,86,82,83,83,80,79,81,80,78,79,78,78,78,78,76,76,77,77,77,77,76,74,73,73,74,71,70,69,68,67,69,69,72,70,69,69,71,70,72,70,67,67,67,67,66,66,71,69,68,67,64,61,60,61,61,63,67,68,70,77,90,101,113,127,132,126,112,112,123,122,115,119,115,108,98,91,93,96,98,102,98,92,87,79,68,64,62,64,66,70,75,80,85,92,102,105,105,100,102,106,106,105,103,99,98,101,104,102,98,90,79,72,65,67,76,87,93,92,88,85,88,92,98,106,115,115,111,108,100,92,85,84,90,103,112,122,131,138,140,144,149,153,159,165,177,179,170,166,170,170,158,138,118,108,101,100,95,98,111,124,133,138,137,133,129,126,124,123,121,121,121,125,126,129,132,133,135,140,149,160,166,164,159,154,152,150,146,140,130,127,125,120,117,113,112,116,117,119,122,125,123,118,116,115,114,110,105,99,91,84,78,75,66,60,55,51,46,44,44,44,50,56,57,58,61,69,74,75,75,71,63,62,60,56,54,48,43,38,35,35,32,30,30,29,27,26,25,24,24,24,23,24,26,25,25,25,23,22,24,25,24,23,22,22,21,20,20,18,17,17,17,17,16,16,16,16,15,15,13,14,15,13,13,13,12,11,10,10,10,10,10,10,8,8,6,7,6,5,6,6,6,5,4,3,3,1,1,2,0,0,0,0,0,0,0,0,0,0,0,0,0,0,0,0,0,0,0,0,0,0,0,0,0,0,0,0,0,0,0,0,0,0,0,0,0,0,0,0,0,0,0,0,0,0,0,0,0,0,0,0,0,0,0,0,0,0,0,0,0,0,0,0,0,0,0,0,0,0,0,0,0,0,0,0,0,0,0,0,0,0,0,0,0,0,0,0,0,0,0,0,0,0,0,0,0,0,0,0,0,0,0,0,0,0,0,0,0,0,0,0,0,0,0,0,0,0,0,0,0,0,0,0,0,0,0,0,0,0,0,0,0,0,0,0,0,0,0,0,0,0,0,0,0,0,0,0,0,0,0,0,0,0,0,0,0,0,0,0,0,0,0,0,0,0,0,0,0,0,0,0,0,0,0,0,0,0,0,0,0,0,0,0,0,0,0,0,0,0,0,0,0,0,0,0,0,0,0,0,0,0,0,0,0,0,0,0,0,0,0,0,0,0,0,0,0,0,0,0,0,0,0,0,0,0,0,0,0,0,0,0,0,0,0,0,0,0,0,0,0,0,0,0,0,0,0,0,0,0,0,0,0,0,0,0,0,0,0,0,0,0,0,0,0,0,0,0,0,0,0,0,0,0,0,0,0,0,0,0,0,0,0,0,0,0,0,0,0,0,0,0,0,0,0,0,0,0,0,0,0,0,0,0,0,0,0,0,0,0,0,0,0,0,0,0,0,0,0,0,0,0,0,0,0
452,450,447,445,443,438,437,435,430,427,429,428,429,430,428,421,424,427,426,420,414,408,403,399,396,393,391,395,402,404,403,404,408,413,418,423,429,440,449,454,464,468,465,461,459,457,456,449,437,421,389,368,362,362,362,356,350,343,335,331,333,342,354,372,385,390,397,410,422,427,427,434,438,420,406,400,405,414,425,435,447,461,473,486,501,514,527,533,533,530,526,515,497,485,487,486,501,523,544,572,593,608,629,648,667,683,695,694,692,697,698,705,715,723,729,732,735,737,738,742,741,743,747,749,745,735,722,711,714,731,751,770,780,781,778,771,768,765,764,764,764,763,762,760,750,740,728,712,691,670,641,604,568,546,532,517,504,494,488,486,487,479,470,458,446,439,439,439,430,422,411,404,398,395,390,388,384,377,368,363,358,352,349,346,345,342,336,334,332,328,326,324,319,314,310,307,309,309,307,306,305,300,299,298,296,299,296,296,294,291,288,286,288,288,287,285,284,283,281,280,278,277,275,274,274,274,273,272,271,270,268,265,262,256,254,250,246,242,244,249,250,249,247,248,243,238,234,234,232,228,224,222,223,220,216,214,214,216,218,219,217,216,215,215,215,215,214,212,209,205,201,196,190,188,185,180,179,183,186,185,184,187,192,197,198,197,195,195,197,198,195,192,190,188,182,181,179,177,174,170,166,161,154,149,146,158,165,171,174,176,175,168,156,154,156,158,159,161,162,162,162,162,167,173,178,180,188,195,201,204,207,214,218,218,220,222,220,212,201,198,209,219,224,225,225,223,217,212,210,201,195,188,179,173,169,164,158,152,144,141,136,131,126,131,139,142,137,131,125,120,119,123,130,135,130,121,113,109,110,118,129,132,128,124,120,116,112,110,106,103,102,103,104,108,109,103,99,100,96,92,93,95,93,92,92,90,89,88,87,85,85,83,81,82,81,81,81,80,81,79,79,78,78,77,77,77,76,77,77,77,75,73,74,75,76,73,69,67,67,65,67,67,69,69,69,70,70,69,71,70,66,65,64,66,68,67,69,69,68,66,63,62,61,62,60,62,61,60,59,62,71,81,90,100,105,103,97,99,102,98,94,93,91,84,78,73,74,75,78,79,77,77,71,69,63,62,61,61,63,62,63,66,71,77,82,85,88,85,85,86,87,86,83,77,78,84,85,84,78,71,65,60,60,68,83,93,102,108,107,100,97,98,101,104,107,100,96,90,85,78,78,86,100,114,123,127,127,127,125,123,127,133,138,143,151,161,157,148,142,141,140,127,113,103,95,86,85,96,109,120,130,134,130,126,124,122,119,118,116,115,111,113,119,120,121,127,136,147,158,169,174,172,164,151,141,136,129,122,118,116,110,105,101,99,100,103,104,103,108,110,107,104,103,102,97,95,91,85,80,76,71,63,56,51,47,45,46,49,51,53,61,66,70,74,76,79,84,90,91,87,79,77,71,66,61,56,51,45,40,39,37,34,32,30,29,30,27,26,24,26,27,27,28,28,27,25,24,24,24,24,25,23,23,23,22,21,20,20,19,18,18,19,19,18,17,17,16,15,14,15,14,12,13,13,13,13,11,10,12,12,11,10,10,9,8,8,7,7,7,7,5,4,4,4,4,2,2,1,0,0,0,0,0,0,0,0,0,0,0,0,0,0,0,0,0,0,0,0,0,0,0,0,0,0,0,0,0,0,0,0,0,0,0,0,0,0,0,0,0,0,0,0,0,0,0,0,0,0,0,0,0,0,0,0,0,0,0,0,0,0,0,0,0,0,0,0,0,0,0,0,0,0,0,0,0,0,0,0,0,0,0,0,0,0,0,0,0,0,0,0,0,0,0,0,0,0,0,0,0,0,0,0,0,0,0,0,0,0,0,0,0,0,0,0,0,0,0,0,0,0,0,0,0,0,0,0,0,0,0,0,0,0,0,0,0,0,0,0,0,0,0,0,0,0,0,0,0,0,0,0,0,0,0,0,0,0,0,0,0,0,0,0,0,0,0,0,0,0,0,0,0,0,0,0,0,0,0,0,0,0,0,0,0,0,0,0,0,0,0,0,0,0,0,0,0,0,0,0,0,0,0,0,0,0,0,0,0,0,0,0,0,0,0,0,0,0,0,0,0,0,0,0,0,0,0,0,0,0,0,0,0,0,0,0,0,0,0,0,0,0,0,0,0,0,0,0,0,0,0,0,0,0,0,0,0,0,0,0,0,0,0,0,0,0,0,0,0,0,0,0,0,0,0,0,0,0,0,0,0,0,0,0,0,0,0,0,0,0,0,0,0,0,0,0,0,0,0,0,0,0,0,0,0,0,0,0,0,0,0,0,0,0,0,0,0,0,0,0,0,0,0,0,0
461,464,459,452,449,445,440,438,435,434,432,429,428,424,420,417,415,415,414,411,408,404,402,399,398,396,392,388,393,395,394,396,398,400,402,406,414,421,431,436,443,450,457,461,458,457,447,432,415,398,385,380,377,379,379,373,360,347,335,330,335,339,350,366,369,372,380,385,390,398,410,425,441,436,421,407,408,418,430,441,452,465,480,492,506,520,523,513,504,500,495,486,474,466,473,490,519,542,568,597,615,627,638,651,677,695,709,713,705,689,682,689,703,720,740,751,757,758,761,762,763,762,762,762,764,763,753,742,729,725,736,753,769,775,772,770,770,769,765,764,765,762,757,757,754,747,739,729,711,691,667,638,610,594,575,560,548,540,534,527,520,507,480,467,458,456,456,448,437,428,419,409,401,393,387,381,379,377,370,365,360,357,354,353,351,350,343,337,332,327,324,323,320,315,311,302,294,294,299,303,304,301,298,296,297,296,295,294,294,292,289,288,289,286,285,284,281,279,280,279,275,275,275,275,272,271,273,271,268,267,265,265,265,263,262,258,257,254,255,257,256,254,254,253,250,248,244,242,239,236,230,229,231,229,225,221,221,222,223,226,227,223,221,219,220,219,220,219,214,209,206,201,195,193,188,183,180,181,186,188,189,188,188,192,196,197,197,196,197,198,199,196,192,187,182,179,177,173,172,170,169,164,156,149,151,161,170,175,175,177,176,168,158,156,161,165,171,173,171,171,175,178,176,171,169,174,183,190,197,202,207,213,218,223,225,226,225,219,208,203,209,216,220,225,226,223,220,215,211,202,193,188,177,168,163,156,149,143,140,137,131,129,134,139,136,130,129,131,130,129,133,138,142,137,128,120,110,108,115,125,132,135,132,126,121,117,115,113,110,107,105,105,106,108,107,104,102,101,97,98,97,94,94,94,93,89,88,88,87,86,85,84,83,81,81,82,82,80,80,81,82,81,79,77,77,78,79,77,76,75,76,75,74,73,73,76,70,67,66,66,67,67,68,67,67,68,69,68,69,67,64,62,62,63,65,64,64,66,66,64,62,60,61,60,60,61,61,59,58,58,58,62,66,77,86,86,82,82,81,76,73,72,70,67,63,63,60,62,64,63,63,64,64,63,63,61,60,62,60,59,58,60,60,61,64,65,65,66,67,66,64,65,63,63,63,64,63,63,63,60,58,57,58,61,71,78,82,89,96,99,104,108,108,108,103,92,85,76,70,75,82,91,101,107,110,108,107,105,103,103,106,114,121,126,133,143,147,142,130,121,119,115,109,98,88,81,81,94,111,124,135,133,123,118,115,116,114,112,110,108,106,104,106,111,119,133,147,161,172,181,179,169,152,138,130,125,120,117,115,108,101,95,92,90,86,88,87,87,89,91,91,89,89,86,83,80,77,72,70,67,62,55,52,48,48,49,51,57,63,63,72,80,83,88,90,89,92,98,101,101,96,92,83,78,72,69,63,55,50,46,44,41,37,34,30,31,30,29,29,31,31,30,31,30,29,28,28,27,26,25,26,25,24,24,24,23,23,23,22,22,21,21,21,19,20,19,18,18,19,18,16,14,14,16,15,16,16,16,16,16,14,13,13,12,10,11,13,11,10,8,4,3,4,3,5,4,2,0,0,0,0,0,0,0,0,0,0,0,0,0,0,0,0,0,0,0,0,0,0,0,0,0,0,0,0,0,0,0,0,0,0,0,0,0,0,0,0,0,0,0,0,0,0,0,0,0,0,0,0,0,0,0,0,0,0,0,0,0,0,0,0,0,0,0,0,0,0,0,0,0,0,0,0,0,0,0,0,0,0,0,0,0,0,0,0,0,0,0,0,0,0,0,0,0,0,0,0,0,0,0,0,0,0,0,0,0,0,0,0,0,0,0,0,0,0,0,0,0,0,0,0,0,0,0,0,0,0,0,0,0,0,0,0,0,0,0,0,0,0,0,0,0,0,0,0,0,0,0,0,0,0,0,0,0,0,0,0,0,0,0,0,0,0,0,0,0,0,0,0,0,0,0,0,0,0,0,0,0,0,0,0,0,0,0,0,0,0,0,0,0,0,0,0,0,0,0,0,0,0,0,0,0,0,0,0,0,0,0,0,0,0,0,0,0,0,0,0,0,0,0,0,0,0,0,0,0,0,0,0,0,0,0,0,0,0,0,0,0,0,0,0,0,0,0,0,0,0,0,0,0,0,0,0,0,0,0,0,0,0,0,0,0,0,0,0,0,0,0,0,0,0,0,0,0,0,0,0,0,0,0,0,0,0,0,0,0,0,0,0,0,0,0,0,0,0,0,0,0,0,0,0,0,0,0,0,0,0,0,0,0,0,0,0,0,0,0,0,0,0,0,0,0,0
478,479,470,464,461,453,451,453,461,461,456,450,448,438,434,440,440,435,429,423,420,417,416,409,401,393,389,387,385,388,389,389,388,395,410,414,412,417,427,432,435,441,448,453,456,450,438,425,414,409,403,397,395,397,395,385,365,349,336,331,335,340,353,358,362,365,369,371,374,384,391,405,422,432,429,418,413,421,432,447,459,467,482,498,508,517,513,500,479,473,468,457,454,462,486,518,547,567,595,619,633,649,658,663,685,704,715,717,716,700,679,669,675,688,703,727,747,762,765,768,769,770,772,772,772,771,765,758,748,737,730,739,751,762,764,766,767,767,763,762,761,758,756,751,750,746,743,739,728,711,692,675,657,643,626,610,600,583,565,549,525,494,462,457,455,444,439,433,429,425,419,411,405,399,388,380,376,373,369,366,365,364,361,355,350,348,343,339,335,329,326,324,320,317,316,310,303,293,286,286,291,298,299,296,295,295,294,292,290,289,290,289,287,284,284,283,280,279,277,276,276,275,275,273,271,269,270,269,267,267,267,266,264,262,263,262,260,257,257,257,257,254,255,253,251,248,245,244,241,238,234,238,241,240,237,231,229,230,230,232,235,233,229,229,230,227,225,224,220,214,209,206,204,199,189,186,186,184,184,189,191,191,191,191,193,195,195,197,197,199,202,202,200,194,189,183,180,173,167,165,165,162,158,151,156,163,169,175,179,181,180,171,161,157,163,172,174,178,180,180,184,189,188,180,178,181,179,182,188,197,205,213,220,224,229,229,227,223,214,208,210,213,218,223,225,226,222,214,204,192,183,177,171,165,157,149,144,141,136,133,135,139,145,141,132,133,142,148,146,144,145,145,140,131,123,115,110,114,124,132,136,137,132,128,123,118,114,112,111,109,107,109,108,107,107,105,105,101,100,98,96,97,95,94,95,92,89,90,86,81,80,83,84,82,81,81,80,78,81,82,82,80,77,77,78,80,78,77,77,76,77,75,73,74,74,74,71,68,66,66,65,68,68,68,68,69,69,69,70,68,64,62,62,62,63,63,64,64,64,61,60,60,61,60,60,60,60,58,58,58,58,58,59,60,65,69,70,66,66,65,63,63,61,60,59,60,59,57,58,59,58,59,60,62,60,59,59,59,58,58,56,55,55,54,56,55,55,55,55,54,53,53,53,53,53,52,53,52,56,56,54,55,55,54,56,58,63,64,69,73,79,90,96,98,94,87,74,66,66,75,83,92,96,94,90,87,85,86,86,87,93,99,110,120,132,140,146,147,137,119,106,103,99,92,82,74,76,88,105,119,128,123,114,109,107,108,107,108,105,104,100,99,101,108,116,126,141,156,164,170,169,161,147,135,127,118,110,108,105,100,93,86,83,80,79,76,75,73,72,72,74,74,72,71,69,67,65,61,58,56,54,53,53,53,58,62,65,72,76,77,85,91,96,100,107,111,115,117,118,117,112,108,100,93,88,84,74,65,57,50,51,48,44,38,34,34,33,34,34,34,34,32,31,32,33,33,33,33,30,29,29,27,27,28,30,31,30,29,29,30,29,28,28,25,24,24,23,24,22,21,20,21,22,24,24,24,25,24,22,21,22,21,20,19,19,17,19,19,14,6,3,3,3,2,2,2,0,0,0,0,0,0,0,0,0,0,0,0,0,0,0,0,0,0,0,0,0,0,0,0,0,0,0,0,0,0,0,0,0,0,0,0,0,0,0,0,0,0,0,0,0,0,0,0,0,0,0,0,0,0,0,0,0,0,0,0,0,0,0,0,0,0,0,0,0,0,0,0,0,0,0,0,0,0,0,0,0,0,0,0,0,0,0,0,0,0,0,0,0,0,0,0,0,0,0,0,0,0,0,0,0,0,0,0,0,0,0,0,0,0,0,0,0,0,0,0,0,0,0,0,0,0,0,0,0,0,0,0,0,0,0,0,0,0,0,0,0,0,0,0,0,0,0,0,0,0,0,0,0,0,0,0,0,0,0,0,0,0,0,0,0,0,0,0,0,0,0,0,0,0,0,0,0,0,0,0,0,0,0,0,0,0,0,0,0,0,0,0,0,0,0,0,0,0,0,0,0,0,0,0,0,0,0,0,0,0,0,0,0,0,0,0,0,0,0,0,0,0,0,0,0,0,0,0,0,0,0,0,0,0,0,0,0,0,0,0,0,0,0,0,0,0,0,0,0,0,0,0,0,0,0,0,0,0,0,0,0,0,0,0,0,0,0,0,0,0,0,0,0,0,0,0,0,0,0,0,0,0,0,0,0,0,0,0,0,0,0,0,0,0,0,0,0,0,0,0,0,0,0,0,0,0,0,0,0,0,0,0,0,0,0,0,0,0,0,0,0,0,0,0,0,0,0
487,485,476,467,465,466,468,475,486,486,483,481,465,451,451,460,461,455,448,439,433,429,426,423,418,412,400,390,384,382,383,385,383,389,403,414,412,415,425,428,433,441,449,454,457,454,445,439,432,423,416,418,415,408,399,388,370,351,338,330,328,333,349,369,384,389,390,388,384,385,386,396,410,419,428,435,438,436,439,447,458,467,479,489,492,486,477,471,458,451,443,447,464,484,515,546,572,594,619,633,651,667,681,687,695,709,717,719,719,713,696,671,653,657,670,688,712,739,759,766,767,768,769,770,772,770,766,761,754,745,733,729,735,744,753,755,757,756,755,755,756,753,749,746,743,735,731,729,726,720,704,685,666,651,634,623,611,590,563,527,494,465,450,447,443,432,419,412,408,405,402,397,394,394,387,380,373,373,374,370,367,363,359,354,348,344,341,337,334,329,326,323,320,317,315,315,312,305,295,288,280,279,287,293,294,294,294,292,291,287,286,286,282,276,280,282,282,279,276,274,273,273,272,270,268,267,267,267,266,265,264,262,262,260,260,261,260,257,257,255,254,252,251,250,248,247,246,245,240,239,237,239,243,243,239,234,234,235,236,237,237,238,238,238,238,236,237,234,229,225,218,214,211,203,193,191,192,190,187,188,192,195,198,198,198,196,195,196,196,197,201,204,203,201,199,194,185,177,168,161,156,155,153,151,158,168,174,179,182,185,183,176,168,158,161,172,178,182,187,189,190,195,196,190,188,194,193,188,186,192,201,208,216,222,225,227,230,227,223,219,214,215,219,222,223,223,216,204,194,186,179,173,166,157,153,148,142,139,139,140,146,150,148,137,136,144,155,163,162,159,152,145,136,128,123,116,112,117,128,137,139,136,132,127,123,120,116,115,114,112,112,111,107,108,106,104,104,101,98,98,99,99,98,96,95,94,92,89,87,85,83,82,81,84,82,80,79,79,79,78,78,78,78,78,79,77,75,75,74,75,74,74,75,74,74,73,72,72,69,66,67,66,66,67,67,65,64,65,68,68,65,62,62,61,62,63,62,62,64,63,60,60,60,60,61,61,61,59,59,60,61,61,60,59,59,58,57,57,57,59,59,60,59,58,58,59,58,57,57,57,56,57,57,58,58,57,58,57,57,57,56,55,54,53,55,54,54,53,52,52,52,51,51,51,50,49,49,51,52,52,53,54,55,51,51,51,52,51,54,53,56,61,68,75,74,68,61,60,65,72,79,82,82,80,75,75,74,74,76,82,93,105,116,126,137,150,156,154,142,120,102,93,90,85,76,70,72,82,95,102,109,110,105,98,96,95,97,99,99,101,97,94,93,100,108,117,128,140,149,157,162,158,149,138,123,116,110,106,101,94,87,81,78,73,72,73,70,70,69,65,64,63,62,61,59,59,58,58,56,56,58,61,63,65,69,77,80,83,88,95,98,100,111,119,126,131,137,140,143,138,132,128,119,110,100,91,84,74,69,65,60,55,50,45,40,39,40,39,40,38,37,37,37,38,40,42,43,42,37,33,31,31,32,35,39,41,41,39,43,45,45,44,40,36,35,32,30,30,30,30,29,30,32,31,33,35,35,33,33,32,32,31,30,29,28,28,26,22,9,6,4,3,5,3,2,1,0,0,0,0,0,0,0,0,0,0,0,0,0,0,0,0,0,0,0,0,0,0,0,0,0,0,0,0,0,0,0,0,0,0,0,0,0,0,0,0,0,0,0,0,0,0,0,0,0,0,0,0,0,0,0,0,0,0,0,0,0,0,0,0,0,0,0,0,0,0,0,0,0,0,0,0,0,0,0,0,0,0,0,0,0,0,0,0,0,0,0,0,0,0,0,0,0,0,0,0,0,0,0,0,0,0,0,0,0,0,0,0,0,0,0,0,0,0,0,0,0,0,0,0,0,0,0,0,0,0,0,0,0,0,0,0,0,0,0,0,0,0,0,0,0,0,0,0,0,0,0,0,0,0,0,0,0,0,0,0,0,0,0,0,0,0,0,0,0,0,0,0,0,0,0,0,0,0,0,0,0,0,0,0,0,0,0,0,0,0,0,0,0,0,0,0,0,0,0,0,0,0,0,0,0,0,0,0,0,0,0,0,0,0,0,0,0,0,0,0,0,0,0,0,0,0,0,0,0,0,0,0,0,0,0,0,0,0,0,0,0,0,0,0,0,0,0,0,0,0,0,0,0,0,0,0,0,0,0,0,0,0,0,0,0,0,0,0,0,0,0,0,0,0,0,0,0,0,0,0,0,0,0,0,0,0,0,0,0,0,0,0,0,0,0,0,0,0,0,0,0,0,0,0,0,0,0,0,0,0,0,0,0,0,0,0,0,0,0,0,0,0,0,0,0,0,0
492,488,479,476,479,483,484,495,509,512,512,499,473,462,465,469,467,463,456,447,444,443,442,443,438,425,413,404,398,387,380,376,375,380,392,404,404,410,419,430,437,445,450,448,447,453,451,445,438,429,429,429,419,404,391,379,365,352,344,337,333,333,345,369,398,415,417,411,405,400,400,400,405,412,418,428,442,450,452,455,461,474,479,475,456,442,438,436,437,438,442,457,476,501,531,558,586,612,637,651,667,682,695,709,718,724,728,727,722,717,706,687,657,630,632,654,675,699,727,751,760,762,759,758,757,756,755,753,747,739,728,717,719,728,736,741,740,743,744,744,744,743,742,739,732,720,706,699,708,707,699,685,662,645,621,596,582,566,536,496,468,463,466,470,469,454,433,417,407,397,385,377,376,380,373,364,354,355,360,363,364,361,357,352,348,346,342,339,337,330,327,325,321,317,313,309,306,304,302,298,294,285,269,273,288,290,291,291,290,288,286,287,283,278,274,274,275,277,277,274,272,271,271,270,266,265,264,264,264,264,263,264,265,260,256,258,257,256,256,256,253,249,248,248,246,245,244,243,242,241,238,237,238,236,234,233,233,232,231,232,232,234,236,240,240,242,243,244,242,237,228,224,218,209,199,200,201,200,194,190,189,194,198,200,201,203,200,200,200,200,202,203,202,199,195,190,182,177,172,168,161,153,150,154,161,171,179,183,185,186,188,183,175,165,160,170,180,187,193,197,200,200,202,199,195,200,204,205,202,196,199,207,216,224,226,231,233,233,232,230,226,221,221,222,220,215,208,199,190,184,179,171,160,153,148,145,142,148,156,159,158,152,145,135,141,154,164,170,167,159,150,144,135,128,120,116,116,119,130,139,139,135,132,126,123,123,122,124,124,121,120,117,110,106,105,101,101,103,102,103,103,102,98,98,95,93,91,89,87,86,87,85,82,83,84,83,81,80,79,78,80,80,79,78,77,75,74,74,73,74,75,75,76,75,72,72,72,72,71,70,68,67,65,65,66,67,66,66,66,66,63,62,62,62,63,64,62,63,64,64,63,63,62,61,61,61,62,60,60,61,62,62,63,61,61,59,55,56,56,55,55,57,57,57,55,56,57,55,55,54,53,55,55,56,56,58,57,56,57,55,55,54,54,52,53,53,52,54,52,53,52,52,51,49,50,49,49,49,51,50,50,52,53,50,50,49,49,48,47,45,47,50,51,56,56,57,55,56,60,62,65,67,66,64,64,66,68,75,84,90,100,112,121,123,128,136,143,142,133,114,96,86,84,81,73,69,68,77,83,82,85,86,83,81,82,83,80,82,84,89,89,91,97,107,118,124,129,136,143,152,155,153,146,135,124,114,107,102,95,88,82,78,77,77,77,80,81,83,81,74,68,67,65,62,61,65,65,65,69,70,75,77,79,81,81,86,94,98,101,107,117,125,130,138,149,158,164,168,167,156,148,139,131,123,110,102,94,87,82,77,70,62,58,53,51,47,45,44,42,40,39,39,42,45,49,51,48,46,39,36,35,37,41,45,51,58,58,55,58,59,56,53,46,45,43,42,43,42,41,38,38,37,40,41,44,45,45,45,43,43,42,41,41,39,36,33,29,18,8,5,6,6,7,4,1,0,0,0,0,0,0,0,0,0,0,0,0,0,0,0,0,0,0,0,0,0,0,0,0,0,0,0,0,0,0,0,0,0,0,0,0,0,0,0,0,0,0,0,0,0,0,0,0,0,0,0,0,0,0,0,0,0,0,0,0,0,0,0,0,0,0,0,0,0,0,0,0,0,0,0,0,0,0,0,0,0,0,0,0,0,0,0,0,0,0,0,0,0,0,0,0,0,0,0,0,0,0,0,0,0,0,0,0,0,0,0,0,0,0,0,0,0,0,0,0,0,0,0,0,0,0,0,0,0,0,0,0,0,0,0,0,0,0,0,0,0,0,0,0,0,0,0,0,0,0,0,0,0,0,0,0,0,0,0,0,0,0,0,0,0,0,0,0,0,0,0,0,0,0,0,0,0,0,0,0,0,0,0,0,0,0,0,0,0,0,0,0,0,0,0,0,0,0,0,0,0,0,0,0,0,0,0,0,0,0,0,0,0,0,0,0,0,0,0,0,0,0,0,0,0,0,0,0,0,0,0,0,0,0,0,0,0,0,0,0,0,0,0,0,0,0,0,0,0,0,0,0,0,0,0,0,0,0,0,0,0,0,0,0,0,0,0,0,0,0,0,0,0,0,0,0,0,0,0,0,0,0,0,0,0,0,0,0,0,0,0,0,0,0,0,0,0,0,0,0,0,0,0,0,0,0,0,0,0,0,0,0,0,0,0,0,0,0,0,0,0,0,0,0,0,0,0,0
496,494,491,491,496,499,504,515,537,539,524,504,486,477,473,469,465,460,457,456,455,456,455,454,447,433,421,416,409,397,389,383,376,377,389,401,399,409,427,439,446,447,443,432,431,443,446,436,426,419,416,417,412,398,383,373,361,349,339,334,329,332,349,367,388,407,414,426,429,424,415,413,410,413,419,426,436,450,460,465,471,473,465,456,435,421,425,437,451,462,467,479,504,529,552,576,602,630,654,669,683,698,710,721,734,738,739,738,731,722,712,698,670,631,604,613,638,662,688,716,742,752,751,746,741,736,734,731,727,723,715,703,697,704,716,722,725,731,731,729,729,727,729,727,723,716,704,678,675,691,687,670,651,631,600,562,537,523,501,478,474,489,498,501,485,467,442,425,414,404,392,380,372,367,362,357,346,341,341,348,353,352,345,343,341,337,336,336,334,331,329,325,321,317,315,310,303,300,299,298,297,293,279,256,255,267,276,287,290,287,284,283,283,279,277,274,272,272,273,273,271,269,270,268,266,266,264,263,262,261,261,261,264,262,259,256,254,254,254,253,252,251,250,249,246,244,245,243,241,239,236,236,238,235,234,233,231,230,229,227,227,227,230,234,234,237,239,244,246,242,235,230,222,213,205,204,207,208,202,196,192,193,198,201,202,204,205,205,204,203,205,207,204,201,197,192,185,183,176,168,163,160,155,156,159,168,174,177,178,181,185,189,185,173,164,163,171,177,183,189,195,200,204,206,204,207,211,215,217,211,210,220,224,228,231,234,236,238,240,239,237,231,227,226,220,214,207,197,189,181,175,169,162,152,145,146,156,168,171,165,157,150,143,139,151,164,172,171,167,162,153,145,137,130,121,115,116,123,129,137,138,136,133,132,130,127,127,129,129,127,125,117,107,105,102,102,104,106,106,105,103,101,101,101,98,93,92,91,89,89,88,86,84,85,85,84,82,80,80,79,79,80,79,78,76,75,75,76,77,77,78,76,75,74,73,72,72,70,71,72,69,68,67,66,66,67,66,66,66,66,64,65,65,65,64,64,64,63,63,63,62,61,61,61,60,60,59,58,58,58,57,59,60,58,58,59,57,56,56,55,55,56,55,55,56,57,55,55,54,54,54,53,55,56,55,55,56,55,55,55,54,54,54,52,53,53,52,51,50,51,52,52,52,50,50,49,49,49,49,49,50,51,51,49,48,48,47,46,47,46,48,47,50,52,53,53,53,53,52,52,55,56,56,56,57,61,63,71,83,92,99,107,106,109,120,132,143,144,131,113,98,86,77,75,70,64,64,68,67,67,68,67,66,66,69,70,69,72,75,80,92,100,111,121,131,137,145,152,160,164,159,152,143,134,123,114,105,96,86,82,80,80,82,84,88,92,94,94,93,87,79,75,76,72,68,74,78,81,86,88,91,91,91,93,93,95,104,113,117,123,133,143,152,163,176,191,199,198,186,173,162,154,142,132,123,113,104,98,94,88,80,73,67,63,60,53,48,43,43,43,45,46,51,54,53,50,46,45,42,42,46,49,51,57,65,68,68,63,65,65,62,59,53,51,51,52,53,52,51,49,49,48,50,53,56,55,54,54,54,54,53,52,52,50,42,33,23,13,6,3,2,4,5,3,2,0,0,0,0,0,0,0,0,0,0,0,0,0,0,0,0,0,0,0,0,0,0,0,0,0,0,0,0,0,0,0,0,0,0,0,0,0,0,0,0,0,0,0,0,0,0,0,0,0,0,0,0,0,0,0,0,0,0,0,0,0,0,0,0,0,0,0,0,0,0,0,0,0,0,0,0,0,0,0,0,0,0,0,0,0,0,0,0,0,0,0,0,0,0,0,0,0,0,0,0,0,0,0,0,0,0,0,0,0,0,0,0,0,0,0,0,0,0,0,0,0,0,0,0,0,0,0,0,0,0,0,0,0,0,0,0,0,0,0,0,0,0,0,0,0,0,0,0,0,0,0,0,0,0,0,0,0,0,0,0,0,0,0,0,0,0,0,0,0,0,0,0,0,0,0,0,0,0,0,0,0,0,0,0,0,0,0,0,0,0,0,0,0,0,0,0,0,0,0,0,0,0,0,0,0,0,0,0,0,0,0,0,0,0,0,0,0,0,0,0,0,0,0,0,0,0,0,0,0,0,0,0,0,0,0,0,0,0,0,0,0,0,0,0,0,0,0,0,0,0,0,0,0,0,0,0,0,0,0,0,0,0,0,0,0,0,0,0,0,0,0,0,0,0,0,0,0,0,0,0,0,0,0,0,0,0,0,0,0,0,0,0,0,0,0,0,0,0,0,0,0,0,0,0,0,0,0,0,0,0,0,0,0,0,0,0,0,0,0,0,0,0,0,0,0,0,0,0
493,495,498,505,519,523,525,538,543,528,513,502,490,478,469,465,460,452,450,456,455,452,451,453,452,444,437,429,421,410,397,387,377,376,378,382,387,403,425,437,438,428,416,412,416,428,439,438,427,416,407,402,394,384,374,363,354,344,336,330,328,336,344,358,377,394,405,425,447,452,441,438,433,431,433,443,453,459,467,475,476,462,447,433,419,429,448,465,482,489,491,505,529,558,585,609,631,651,671,689,695,700,712,728,740,743,744,745,742,735,723,703,675,636,598,582,598,617,641,671,714,741,745,741,730,720,708,701,698,700,699,690,667,672,688,702,712,720,721,717,717,715,714,710,707,703,694,674,650,663,673,664,646,628,603,577,555,526,502,487,492,513,518,513,491,471,453,437,426,416,409,400,394,386,384,373,360,348,337,329,330,325,321,315,307,304,311,317,322,324,325,323,321,318,314,312,307,302,296,291,289,287,279,258,241,239,259,281,285,287,284,282,282,280,279,275,273,271,267,267,267,266,266,265,266,265,264,263,262,259,258,256,256,257,257,255,254,254,254,252,250,250,249,248,245,244,243,242,241,239,238,236,236,235,235,235,232,230,229,228,226,225,225,228,229,232,236,237,239,239,240,237,228,220,214,212,212,214,211,205,200,194,197,198,199,203,204,206,208,208,209,209,206,203,198,192,186,180,173,167,169,170,165,159,156,161,167,171,173,178,185,187,188,181,177,169,167,168,171,179,187,195,201,206,210,212,217,221,224,223,221,231,235,238,239,238,241,243,245,245,244,240,231,225,218,213,202,196,185,179,173,168,163,154,149,161,175,181,175,165,156,150,145,147,159,172,174,168,162,158,152,144,138,130,122,116,121,132,140,143,140,141,140,140,138,133,130,132,134,129,125,115,107,104,103,107,113,118,115,112,106,104,103,101,100,97,95,94,95,95,93,89,87,85,85,83,79,77,77,79,81,80,78,80,78,77,76,77,76,77,76,74,74,73,72,70,70,69,71,71,69,68,67,68,66,66,66,66,65,64,63,64,63,63,62,62,61,61,61,62,61,62,63,63,62,61,60,58,57,57,57,56,56,56,57,59,58,56,56,55,55,55,54,53,53,53,55,54,53,53,52,53,54,53,53,54,53,52,53,54,54,53,54,53,52,52,51,50,50,49,50,50,52,52,52,49,49,50,49,49,50,50,48,48,46,47,46,45,46,46,46,47,48,49,51,50,50,51,50,49,51,52,53,54,55,55,57,60,66,76,83,86,87,99,111,119,131,134,126,115,101,88,73,69,65,60,58,60,61,62,59,60,63,64,67,72,76,77,78,82,87,95,101,108,118,131,141,153,162,165,159,147,138,128,117,114,106,96,88,89,90,89,86,88,94,102,107,108,103,95,87,83,86,86,80,79,87,94,104,108,109,108,108,110,113,113,117,126,134,141,150,161,175,188,202,209,205,196,191,188,181,171,159,146,133,124,116,109,104,97,90,79,73,65,59,52,47,48,50,52,57,58,59,59,55,51,51,50,52,54,56,59,61,65,73,78,78,77,73,67,65,63,61,61,62,61,62,61,60,60,58,59,60,62,66,65,67,68,68,67,65,62,57,48,39,32,19,9,4,2,3,4,3,3,0,0,0,0,0,0,0,0,0,0,0,0,0,0,0,0,0,0,0,0,0,0,0,0,0,0,0,0,0,0,0,0,0,0,0,0,0,0,0,0,0,0,0,0,0,0,0,0,0,0,0,0,0,0,0,0,0,0,0,0,0,0,0,0,0,0,0,0,0,0,0,0,0,0,0,0,0,0,0,0,0,0,0,0,0,0,0,0,0,0,0,0,0,0,0,0,0,0,0,0,0,0,0,0,0,0,0,0,0,0,0,0,0,0,0,0,0,0,0,0,0,0,0,0,0,0,0,0,0,0,0,0,0,0,0,0,0,0,0,0,0,0,0,0,0,0,0,0,0,0,0,0,0,0,0,0,0,0,0,0,0,0,0,0,0,0,0,0,0,0,0,0,0,0,0,0,0,0,0,0,0,0,0,0,0,0,0,0,0,0,0,0,0,0,0,0,0,0,0,0,0,0,0,0,0,0,0,0,0,0,0,0,0,0,0,0,0,0,0,0,0,0,0,0,0,0,0,0,0,0,0,0,0,0,0,0,0,0,0,0,0,0,0,0,0,0,0,0,0,0,0,0,0,0,0,0,0,0,0,0,0,0,0,0,0,0,0,0,0,0,0,0,0,0,0,0,0,0,0,0,0,0,0,0,0,0,0,0,0,0,0,0,0,0,0,0,0,0,0,0,0,0,0,0,0,0,0,0,0,0,0,0,0,0,0,0,0,0,0,0,0,0,0,0,0,0,0,0,0
488,494,501,510,526,538,544,537,525,510,495,484,480,474,468,459,452,447,440,444,450,449,444,450,452,447,448,443,434,424,406,395,385,378,376,373,378,385,396,408,406,398,397,403,410,417,424,435,436,426,418,411,404,394,384,371,358,343,335,330,327,328,341,354,366,385,404,422,442,460,459,460,455,450,448,452,463,467,471,469,463,450,432,419,425,448,471,491,501,505,517,537,558,583,608,635,662,679,691,708,720,716,709,715,724,736,743,745,746,742,733,717,690,650,610,575,564,578,604,642,686,726,745,741,729,718,699,677,664,657,662,661,640,632,651,672,693,705,711,711,709,705,700,696,689,683,680,667,641,643,656,651,637,621,602,580,559,534,512,504,513,524,526,514,490,474,458,446,438,431,424,415,409,403,395,384,370,361,355,344,327,314,307,303,296,291,291,295,296,301,313,320,321,316,314,312,308,304,299,292,283,276,267,253,239,229,238,265,277,282,283,282,280,281,281,278,276,272,267,264,265,268,267,263,262,263,264,262,260,257,257,256,254,252,255,254,252,251,251,250,248,245,247,246,245,242,241,239,239,238,237,235,234,233,232,232,230,230,229,227,227,226,224,222,223,226,228,232,233,237,239,239,235,231,228,225,223,221,222,219,210,204,201,203,203,205,208,209,209,210,212,212,211,209,202,199,191,183,175,174,177,175,169,163,157,160,167,176,181,184,186,190,191,191,191,184,177,170,169,170,172,178,186,195,205,211,219,223,227,229,231,234,234,237,243,245,249,251,250,249,248,243,235,225,217,210,204,196,186,177,169,163,160,158,165,180,187,186,178,168,159,150,146,152,167,178,177,172,166,159,153,145,139,130,121,119,127,139,150,153,149,147,146,142,139,137,136,136,135,130,123,115,108,105,105,111,121,128,126,122,115,109,107,106,105,102,100,99,98,98,97,94,89,89,86,84,82,80,80,78,79,80,78,77,77,79,78,78,77,76,75,75,75,73,73,74,73,71,69,68,68,68,69,71,69,68,68,68,67,67,67,64,62,62,61,60,61,61,61,63,63,64,62,61,63,63,62,60,60,61,60,58,57,57,56,58,57,56,56,56,54,54,55,53,53,54,53,53,51,51,53,53,53,53,55,54,52,52,52,52,51,51,52,53,51,50,50,50,49,49,50,50,51,51,51,50,49,48,48,47,48,47,46,45,45,45,46,44,45,44,44,45,45,46,48,48,47,47,47,46,46,48,48,48,49,50,51,53,55,60,65,69,75,88,97,99,101,104,103,98,90,80,69,62,60,56,55,55,56,59,61,64,69,74,79,89,96,96,96,95,93,95,99,102,110,123,133,142,152,161,156,142,131,121,113,109,104,97,94,96,100,100,96,94,99,110,118,120,114,108,100,91,93,98,94,88,94,106,116,125,127,126,129,131,133,133,138,148,153,161,171,179,185,186,194,196,185,178,185,192,193,186,169,155,143,132,123,112,105,98,89,79,73,66,58,55,55,58,60,65,68,69,65,61,58,55,54,55,58,63,66,69,72,74,79,82,82,83,82,79,76,74,72,72,73,73,72,70,68,69,69,71,71,75,76,78,80,82,80,75,67,60,53,45,37,28,18,7,5,4,4,4,2,1,0,0,0,0,0,0,0,0,0,0,0,0,0,0,0,0,0,0,0,0,0,0,0,0,0,0,0,0,0,0,0,0,0,0,0,0,0,0,0,0,0,0,0,0,0,0,0,0,0,0,0,0,0,0,0,0,0,0,0,0,0,0,0,0,0,0,0,0,0,0,0,0,0,0,0,0,0,0,0,0,0,0,0,0,0,0,0,0,0,0,0,0,0,0,0,0,0,0,0,0,0,0,0,0,0,0,0,0,0,0,0,0,0,0,0,0,0,0,0,0,0,0,0,0,0,0,0,0,0,0,0,0,0,0,0,0,0,0,0,0,0,0,0,0,0,0,0,0,0,0,0,0,0,0,0,0,0,0,0,0,0,0,0,0,0,0,0,0,0,0,0,0,0,0,0,0,0,0,0,0,0,0,0,0,0,0,0,0,0,0,0,0,0,0,0,0,0,0,0,0,0,0,0,0,0,0,0,0,0,0,0,0,0,0,0,0,0,0,0,0,0,0,0,0,0,0,0,0,0,0,0,0,0,0,0,0,0,0,0,0,0,0,0,0,0,0,0,0,0,0,0,0,0,0,0,0,0,0,0,0,0,0,0,0,0,0,0,0,0,0,0,0,0,0,0,0,0,0,0,0,0,0,0,0,0,0,0,0,0,0,0,0,0,0,0,0,0,0,0,0,0,0,0,0,0,0,0,0,0,0,0,0,0,0,0,0,0,0,0,0,0,0,0,0,0,0,0,0,0
486,502,511,523,537,543,534,518,508,493,481,476,474,471,461,455,452,449,439,428,426,430,434,435,447,448,443,440,441,439,427,411,402,394,383,372,372,375,376,377,380,384,385,393,401,406,414,426,433,427,414,405,401,391,378,368,357,343,337,334,329,327,338,351,362,374,392,406,424,439,447,458,465,466,463,456,453,451,445,439,429,419,410,415,439,467,491,509,521,535,554,569,590,609,633,662,684,703,716,728,734,740,736,729,720,721,729,738,741,741,734,727,706,667,627,590,556,547,576,615,655,690,730,749,741,728,709,689,666,647,628,625,621,607,613,638,661,682,697,703,705,702,695,687,677,673,666,653,630,631,642,634,620,601,586,564,544,528,518,516,521,526,520,498,479,463,455,450,447,441,436,429,423,413,403,394,381,373,371,364,344,331,326,322,315,312,301,286,279,278,288,302,315,316,314,310,308,305,299,296,293,290,278,266,250,230,224,237,258,275,279,278,278,277,277,278,277,272,267,266,265,264,263,262,260,258,260,257,258,258,255,254,254,250,252,255,252,252,250,249,247,246,245,244,241,239,240,238,238,235,235,234,233,233,231,230,230,229,228,227,226,225,226,224,222,219,220,225,230,234,236,239,240,239,239,237,233,233,232,228,221,216,213,212,212,212,213,214,215,215,214,216,216,213,206,202,194,188,185,182,183,177,171,166,163,163,163,169,177,183,187,190,193,197,201,199,191,183,182,181,180,179,178,182,192,202,205,211,216,222,230,235,236,239,244,246,248,253,255,254,251,243,233,225,219,212,204,193,184,175,166,160,163,173,183,190,195,190,179,168,160,152,149,161,176,181,180,172,168,161,153,144,137,128,122,123,132,147,157,159,152,149,149,147,146,146,142,139,135,128,120,113,110,108,108,115,127,134,132,126,123,118,113,112,114,111,107,104,102,101,97,95,92,93,95,92,90,85,84,83,81,80,79,78,78,79,79,79,76,76,75,76,75,73,73,73,74,73,74,71,71,70,70,69,70,70,70,70,71,71,68,67,67,66,64,63,62,62,63,65,65,65,64,64,62,61,62,61,63,63,61,61,59,57,56,58,57,57,59,57,56,53,55,56,54,53,53,54,54,54,53,53,53,53,54,55,54,54,52,51,48,49,49,50,50,50,49,50,50,50,50,50,50,50,49,48,49,49,47,49,49,48,48,48,45,45,44,44,44,43,43,42,43,44,45,46,45,43,42,42,43,44,45,44,45,44,46,47,47,50,54,60,70,73,76,80,82,84,84,79,70,63,59,57,55,54,55,55,62,69,77,80,85,89,92,95,105,110,111,111,108,109,110,109,110,115,122,132,139,148,151,143,132,123,113,106,103,101,103,106,112,113,110,102,101,109,118,125,127,124,113,103,100,107,106,99,98,106,120,133,141,145,148,151,155,157,157,165,176,187,187,184,178,170,165,163,159,161,166,173,175,168,159,148,137,129,120,113,104,96,86,77,71,66,63,62,66,67,69,76,79,73,69,67,64,63,63,65,66,72,76,81,86,90,93,93,96,99,99,96,92,92,90,86,84,85,85,82,81,82,84,85,87,91,95,98,93,86,78,70,64,57,49,43,36,24,13,8,6,6,4,3,3,1,0,0,0,0,0,0,0,0,0,0,0,0,0,0,0,0,0,0,0,0,0,0,0,0,0,0,0,0,0,0,0,0,0,0,0,0,0,0,0,0,0,0,0,0,0,0,0,0,0,0,0,0,0,0,0,0,0,0,0,0,0,0,0,0,0,0,0,0,0,0,0,0,0,0,0,0,0,0,0,0,0,0,0,0,0,0,0,0,0,0,0,0,0,0,0,0,0,0,0,0,0,0,0,0,0,0,0,0,0,0,0,0,0,0,0,0,0,0,0,0,0,0,0,0,0,0,0,0,0,0,0,0,0,0,0,0,0,0,0,0,0,0,0,0,0,0,0,0,0,0,0,0,0,0,0,0,0,0,0,0,0,0,0,0,0,0,0,0,0,0,0,0,0,0,0,0,0,0,0,0,0,0,0,0,0,0,0,0,0,0,0,0,0,0,0,0,0,0,0,0,0,0,0,0,0,0,0,0,0,0,0,0,0,0,0,0,0,0,0,0,0,0,0,0,0,0,0,0,0,0,0,0,0,0,0,0,0,0,0,0,0,0,0,0,0,0,0,0,0,0,0,0,0,0,0,0,0,0,0,0,0,0,0,0,0,0,0,0,0,0,0,0,0,0,0,0,0,0,0,0,0,0,0,0,0,0,0,0,0,0,0,0,0,0,0,0,0,0,0,0,0,0,0,0,0,0,0,0,0,0,0,0,0,0,0,0,0,0,0,0,0,0,0,0,0,0,0,0,0
490,511,519,526,528,524,515,504,494,482,475,467,464,463,456,447,449,452,445,431,415,410,411,419,438,446,438,426,431,441,441,432,425,421,406,393,379,372,372,370,370,371,375,382,392,404,414,419,422,424,418,405,394,383,369,362,352,345,340,337,334,328,331,340,355,366,379,394,405,414,420,432,445,454,459,447,433,425,413,401,397,406,418,431,448,471,500,524,543,562,581,600,618,630,648,674,699,718,735,750,756,760,761,757,748,738,731,728,728,728,728,724,712,691,660,614,569,535,550,586,617,656,692,730,749,744,728,711,690,666,639,611,596,587,579,596,621,645,669,682,688,693,692,685,669,652,645,638,616,626,635,618,602,585,568,551,544,536,532,531,528,516,498,482,467,456,448,445,446,446,443,439,428,418,407,400,390,385,388,379,365,351,345,340,336,331,323,310,292,275,269,284,299,311,314,308,307,305,302,300,298,294,284,272,255,235,220,214,224,243,266,278,278,276,273,272,272,272,269,267,266,264,262,260,259,257,257,255,253,253,252,252,251,248,247,247,249,250,249,247,244,243,243,243,241,240,239,238,237,235,234,232,231,231,229,228,228,227,227,226,224,225,223,222,221,216,213,216,220,226,230,233,235,237,238,238,238,238,235,235,231,228,226,226,222,221,221,223,224,224,223,222,222,220,218,212,206,199,192,186,181,179,173,166,166,171,168,165,167,172,179,186,192,197,201,203,202,196,193,193,195,192,185,182,183,189,194,198,206,215,224,233,240,243,247,248,249,251,253,253,249,243,231,222,216,208,198,188,180,171,163,165,177,190,198,203,203,189,178,171,162,156,158,172,184,185,180,173,166,161,151,142,135,127,126,131,142,155,165,164,160,156,156,157,154,151,145,140,134,126,120,114,111,109,110,118,130,134,132,128,126,122,120,121,120,118,112,111,105,102,102,98,95,97,100,101,99,93,87,84,82,81,82,80,80,81,80,77,76,77,76,75,75,76,75,73,73,73,76,72,72,70,69,69,69,70,71,70,70,70,70,70,70,68,67,67,65,64,66,66,66,66,66,66,64,63,62,63,64,63,62,61,62,60,56,57,57,55,57,59,58,56,55,56,55,54,55,55,54,54,53,53,52,50,50,51,54,54,52,50,49,50,48,50,49,49,48,49,50,49,49,49,49,48,48,48,47,47,47,47,49,49,46,45,44,43,44,44,44,43,42,42,42,43,44,43,41,41,41,41,43,42,43,43,42,41,44,42,43,44,43,49,56,57,61,61,62,63,63,62,58,55,54,53,53,51,54,60,73,87,101,101,104,106,109,111,113,119,125,125,124,124,124,124,125,125,126,130,135,142,149,151,142,130,122,116,112,113,114,115,121,124,120,111,106,111,122,132,137,133,125,113,108,112,112,109,105,109,121,131,145,158,167,176,181,183,184,190,196,193,187,184,180,173,166,159,153,152,148,148,147,144,139,135,128,124,119,113,104,93,83,74,70,72,72,74,74,76,79,86,87,80,76,75,74,76,76,75,76,83,88,92,97,102,108,111,113,115,115,108,106,103,102,102,101,103,103,102,102,101,101,101,103,108,114,109,94,83,77,70,63,55,47,40,35,22,11,9,7,5,5,3,3,1,0,0,0,0,0,0,0,0,0,0,0,0,0,0,0,0,0,0,0,0,0,0,0,0,0,0,0,0,0,0,0,0,0,0,0,0,0,0,0,0,0,0,0,0,0,0,0,0,0,0,0,0,0,0,0,0,0,0,0,0,0,0,0,0,0,0,0,0,0,0,0,0,0,0,0,0,0,0,0,0,0,0,0,0,0,0,0,0,0,0,0,0,0,0,0,0,0,0,0,0,0,0,0,0,0,0,0,0,0,0,0,0,0,0,0,0,0,0,0,0,0,0,0,0,0,0,0,0,0,0,0,0,0,0,0,0,0,0,0,0,0,0,0,0,0,0,0,0,0,0,0,0,0,0,0,0,0,0,0,0,0,0,0,0,0,0,0,0,0,0,0,0,0,0,0,0,0,0,0,0,0,0,0,0,0,0,0,0,0,0,0,0,0,0,0,0,0,0,0,0,0,0,0,0,0,0,0,0,0,0,0,0,0,0,0,0,0,0,0,0,0,0,0,0,0,0,0,0,0,0,0,0,0,0,0,0,0,0,0,0,0,0,0,0,0,0,0,0,0,0,0,0,0,0,0,0,0,0,0,0,0,0,0,0,0,0,0,0,0,0,0,0,0,0,0,0,0,0,0,0,0,0,0,0,0,0,0,0,0,0,0,0,0,0,0,0,0,0,0,0,0,0,0,0,0,0,0,0,0,0,0,0,0,0,0,0,0,0,0,0,0,0,0,0,0,0,0,0,0
488,509,509,512,510,499,490,484,480,475,471,460,450,451,447,438,438,443,439,429,418,404,400,408,419,431,432,416,423,434,439,438,439,437,433,423,408,390,374,364,360,362,368,373,381,391,400,402,408,414,419,414,403,390,377,377,373,359,347,340,335,329,327,333,342,350,367,381,389,396,403,410,420,434,432,424,408,399,389,395,411,424,435,451,466,481,503,525,549,569,590,620,643,666,681,696,711,726,739,756,768,775,775,774,769,759,749,739,729,722,717,712,708,698,672,628,581,538,526,554,592,622,658,693,725,745,747,735,716,692,665,639,605,577,558,564,580,602,629,655,670,675,675,675,673,657,631,608,608,617,612,602,591,581,571,567,565,553,546,541,526,501,484,470,458,450,437,429,426,432,437,436,421,406,396,391,386,386,394,385,360,342,333,331,331,326,324,317,299,276,263,274,289,303,311,307,304,302,302,300,297,293,283,271,255,239,225,213,209,218,240,259,269,276,276,271,269,270,269,268,268,265,263,261,260,259,257,255,253,250,250,249,247,247,247,245,245,245,246,246,245,244,242,241,241,239,237,237,234,233,231,230,229,228,227,225,221,223,225,226,223,222,222,222,221,217,210,209,215,221,224,227,230,232,234,235,234,231,227,228,229,230,230,231,226,228,228,228,229,230,231,230,228,227,224,222,215,209,200,190,186,183,176,170,171,173,174,173,169,167,172,180,189,196,201,198,197,201,200,202,204,205,203,199,197,195,194,195,199,206,215,223,232,239,245,249,250,251,254,255,252,247,236,224,213,201,193,182,174,167,164,175,189,195,204,211,209,194,181,172,165,163,173,187,192,189,183,171,162,157,151,142,134,126,128,138,152,166,174,169,166,164,164,165,162,154,145,137,134,130,125,117,113,113,113,123,135,137,130,127,127,129,127,123,119,118,116,112,109,109,108,104,102,100,102,107,109,106,96,90,86,83,83,83,82,81,80,78,79,78,78,77,75,76,74,73,73,73,71,69,69,69,71,69,70,70,69,68,70,71,69,69,70,70,69,68,68,67,67,66,65,65,65,64,64,62,62,63,64,62,62,61,62,60,58,58,58,55,55,55,55,55,55,55,55,53,53,53,55,53,52,52,50,49,50,49,51,53,51,50,50,51,50,50,49,49,49,48,49,50,50,50,50,49,47,48,47,46,45,45,46,46,45,45,44,43,44,44,44,43,43,42,42,43,43,42,39,39,41,41,41,41,41,41,41,40,41,40,41,41,41,41,43,44,47,50,51,50,50,49,49,48,49,49,49,49,52,63,79,95,101,104,106,105,106,111,113,117,123,129,130,130,127,123,123,125,128,133,138,143,151,152,148,139,133,128,124,127,127,126,129,133,133,126,119,116,124,135,141,139,131,124,118,120,123,120,116,120,133,144,157,167,184,201,204,207,209,208,203,195,196,198,200,194,182,168,157,154,149,142,133,131,128,123,117,111,107,105,99,88,84,80,79,82,83,83,85,87,88,91,95,91,89,88,88,91,92,90,89,92,96,98,99,101,102,103,102,102,100,95,94,93,94,95,99,101,103,102,103,102,99,96,97,100,105,100,90,82,76,67,60,52,44,36,28,17,10,9,7,6,5,2,4,0,0,0,0,0,0,0,0,0,0,0,0,0,0,0,0,0,0,0,0,0,0,0,0,0,0,0,0,0,0,0,0,0,0,0,0,0,0,0,0,0,0,0,0,0,0,0,0,0,0,0,0,0,0,0,0,0,0,0,0,0,0,0,0,0,0,0,0,0,0,0,0,0,0,0,0,0,0,0,0,0,0,0,0,0,0,0,0,0,0,0,0,0,0,0,0,0,0,0,0,0,0,0,0,0,0,0,0,0,0,0,0,0,0,0,0,0,0,0,0,0,0,0,0,0,0,0,0,0,0,0,0,0,0,0,0,0,0,0,0,0,0,0,0,0,0,0,0,0,0,0,0,0,0,0,0,0,0,0,0,0,0,0,0,0,0,0,0,0,0,0,0,0,0,0,0,0,0,0,0,0,0,0,0,0,0,0,0,0,0,0,0,0,0,0,0,0,0,0,0,0,0,0,0,0,0,0,0,0,0,0,0,0,0,0,0,0,0,0,0,0,0,0,0,0,0,0,0,0,0,0,0,0,0,0,0,0,0,0,0,0,0,0,0,0,0,0,0,0,0,0,0,0,0,0,0,0,0,0,0,0,0,0,0,0,0,0,0,0,0,0,0,0,0,0,0,0,0,0,0,0,0,0,0,0,0,0,0,0,0,0,0,0,0,0,0,0,0,0,0,0,0,0,0,0,0,0,0,0,0,0,0,0,0,0,0,0,0,0,0,0,0,0,0,0,0,0,0,0,0
479,493,497,501,498,489,479,469,469,469,458,446,438,436,430,421,420,429,437,437,429,416,400,395,405,420,424,406,409,422,424,428,432,438,441,435,423,404,389,375,363,359,357,360,368,374,381,389,395,401,411,414,410,400,392,388,379,361,346,337,335,328,327,327,330,340,356,367,372,377,385,400,409,403,394,386,382,384,390,413,433,448,453,461,489,516,536,552,568,585,604,628,647,676,706,726,738,743,747,754,763,770,775,776,775,769,760,751,737,724,710,697,681,675,666,637,590,546,517,535,568,597,624,655,688,712,734,745,738,720,694,667,638,603,564,540,540,556,584,618,645,657,658,660,656,646,629,600,593,592,588,585,585,589,588,585,578,561,550,536,514,497,481,468,458,444,430,421,412,413,425,424,400,382,376,369,365,369,371,361,343,328,320,314,312,306,304,302,289,270,256,265,282,303,312,307,305,301,299,298,296,293,288,279,265,247,231,218,207,204,218,235,248,261,271,272,267,266,267,269,268,265,262,262,260,258,257,255,253,251,247,246,246,248,247,245,242,239,243,246,244,245,244,240,239,238,236,235,232,228,228,229,228,227,226,222,219,219,220,221,223,223,221,220,219,217,214,207,207,212,217,219,225,228,227,227,226,223,220,220,221,222,223,225,224,225,227,228,229,230,230,231,227,225,223,223,221,216,208,198,192,186,178,179,179,181,181,181,179,176,173,173,179,184,187,187,192,198,202,205,209,212,217,216,214,213,211,207,206,204,209,215,224,231,237,242,247,250,253,255,257,254,250,241,225,213,200,184,171,167,173,185,194,201,206,211,210,197,186,176,168,172,184,193,197,194,185,173,160,154,148,139,133,128,130,141,156,173,178,178,175,174,173,172,166,157,147,141,141,136,127,119,114,114,117,128,138,138,132,130,131,131,130,125,123,122,120,116,116,118,117,112,107,105,107,113,113,111,108,102,97,93,88,85,83,82,82,81,81,80,77,76,76,76,75,74,73,71,69,69,69,69,70,68,70,70,69,69,70,71,69,70,70,69,68,67,66,66,65,65,65,66,65,64,64,64,63,63,63,62,62,62,60,60,58,57,60,59,56,55,55,55,54,53,54,54,54,54,52,51,50,50,48,48,50,49,48,49,48,49,50,50,49,49,48,47,48,47,47,48,49,50,50,49,48,47,47,47,47,47,46,46,46,47,45,43,44,44,43,43,43,40,42,43,43,43,40,40,41,43,40,40,38,38,38,38,38,38,38,40,39,38,36,38,39,42,42,45,46,45,46,45,46,46,46,46,51,62,75,82,81,82,85,87,90,96,102,107,113,117,118,116,113,108,107,106,110,116,121,128,134,139,141,140,136,134,133,135,138,140,140,143,146,144,136,129,128,135,141,146,143,135,130,130,136,137,135,133,140,155,169,181,192,201,205,215,220,216,211,207,207,209,207,197,186,174,168,164,157,147,137,129,125,121,113,107,102,99,95,92,92,93,95,95,95,95,97,100,101,104,105,103,103,105,104,107,106,100,95,93,91,88,86,85,83,82,81,76,74,71,71,73,75,75,76,77,81,80,81,82,84,82,83,85,85,85,81,76,69,60,53,45,38,31,21,12,9,7,7,6,5,2,1,0,0,0,0,0,0,0,0,0,0,0,0,0,0,0,0,0,0,0,0,0,0,0,0,0,0,0,0,0,0,0,0,0,0,0,0,0,0,0,0,0,0,0,0,0,0,0,0,0,0,0,0,0,0,0,0,0,0,0,0,0,0,0,0,0,0,0,0,0,0,0,0,0,0,0,0,0,0,0,0,0,0,0,0,0,0,0,0,0,0,0,0,0,0,0,0,0,0,0,0,0,0,0,0,0,0,0,0,0,0,0,0,0,0,0,0,0,0,0,0,0,0,0,0,0,0,0,0,0,0,0,0,0,0,0,0,0,0,0,0,0,0,0,0,0,0,0,0,0,0,0,0,0,0,0,0,0,0,0,0,0,0,0,0,0,0,0,0,0,0,0,0,0,0,0,0,0,0,0,0,0,0,0,0,0,0,0,0,0,0,0,0,0,0,0,0,0,0,0,0,0,0,0,0,0,0,0,0,0,0,0,0,0,0,0,0,0,0,0,0,0,0,0,0,0,0,0,0,0,0,0,0,0,0,0,0,0,0,0,0,0,0,0,0,0,0,0,0,0,0,0,0,0,0,0,0,0,0,0,0,0,0,0,0,0,0,0,0,0,0,0,0,0,0,0,0,0,0,0,0,0,0,0,0,0,0,0,0,0,0,0,0,0,0,0,0,0,0,0,0,0,0,0,0,0,0,0,0,0,0,0,0,0,0,0,0,0,0,0,0,0,0,0,0,0,0,0,0,0,0
464,484,495,497,484,475,471,464,458,455,447,440,428,414,412,413,408,416,433,440,440,433,414,391,390,407,411,398,401,414,418,424,431,438,444,445,436,424,411,392,375,361,354,357,363,367,371,378,389,399,407,411,414,412,403,387,374,361,349,337,332,328,327,328,335,343,354,354,355,365,377,381,375,370,369,377,390,403,414,430,449,472,487,484,493,518,552,585,608,628,646,662,676,690,708,732,751,762,769,771,773,775,778,778,775,771,767,757,744,730,710,678,644,634,635,635,606,560,517,517,540,564,592,620,648,672,699,717,731,730,718,697,669,635,599,554,526,520,542,572,604,628,635,634,630,628,616,596,581,574,574,570,574,582,589,589,578,561,548,532,514,500,487,475,464,445,428,418,407,401,408,400,381,368,361,351,350,358,358,347,333,319,313,304,296,289,284,284,280,264,257,267,283,297,307,308,304,301,299,297,294,291,287,277,265,250,234,219,208,197,203,219,232,244,258,269,270,269,268,264,265,265,264,262,260,258,257,256,255,253,250,245,246,249,246,244,242,238,241,244,243,242,242,239,238,237,236,236,230,227,227,229,228,228,227,225,223,222,219,217,216,217,220,219,217,217,214,209,202,201,208,211,216,220,219,219,219,218,215,212,214,216,218,219,220,221,219,219,223,225,223,223,220,217,218,218,219,218,212,206,197,188,184,189,189,190,186,187,191,190,186,181,179,183,185,187,188,196,202,211,213,216,220,225,225,226,227,225,223,221,219,223,229,233,238,242,246,250,253,256,262,261,260,244,227,213,200,184,175,178,183,190,199,205,209,214,214,203,192,183,174,178,189,202,204,196,184,170,158,153,143,136,130,131,138,145,154,165,174,181,183,182,182,177,167,161,150,145,144,135,123,116,113,116,122,132,141,144,139,136,135,133,133,131,127,122,121,122,124,121,119,114,110,109,114,116,115,113,114,113,107,105,99,93,88,86,85,83,80,77,77,77,78,75,74,74,73,70,70,70,70,70,70,69,68,69,70,70,70,68,69,69,69,69,68,66,65,66,66,66,66,64,62,63,64,63,62,62,63,61,61,61,61,59,58,60,62,60,59,58,57,57,57,55,56,56,56,54,51,53,52,51,50,48,47,49,49,49,48,49,50,50,48,49,48,48,49,48,47,48,48,48,48,48,47,46,46,47,47,47,45,45,44,46,45,44,43,43,43,43,43,41,42,42,42,42,42,41,41,39,39,38,39,39,39,38,38,37,38,40,38,36,35,36,39,39,39,41,44,43,45,45,44,44,44,44,46,52,58,62,64,63,64,68,75,81,92,99,103,103,104,105,104,100,98,96,95,97,104,114,119,122,122,120,120,120,123,126,133,141,146,150,155,156,152,146,141,141,147,152,152,148,145,146,156,158,156,153,153,159,165,172,177,180,187,194,201,207,211,216,217,211,204,196,190,187,185,182,173,160,148,141,136,128,121,117,114,110,109,108,110,110,112,113,114,111,114,119,122,124,122,122,122,119,112,107,101,95,90,84,78,74,70,68,69,67,64,62,60,55,51,51,53,54,53,54,57,59,58,61,63,65,67,68,69,68,68,67,61,53,46,39,32,25,16,9,8,6,7,6,4,2,0,0,0,0,0,0,0,0,0,0,0,0,0,0,0,0,0,0,0,0,0,0,0,0,0,0,0,0,0,0,0,0,0,0,0,0,0,0,0,0,0,0,0,0,0,0,0,0,0,0,0,0,0,0,0,0,0,0,0,0,0,0,0,0,0,0,0,0,0,0,0,0,0,0,0,0,0,0,0,0,0,0,0,0,0,0,0,0,0,0,0,0,0,0,0,0,0,0,0,0,0,0,0,0,0,0,0,0,0,0,0,0,0,0,0,0,0,0,0,0,0,0,0,0,0,0,0,0,0,0,0,0,0,0,0,0,0,0,0,0,0,0,0,0,0,0,0,0,0,0,0,0,0,0,0,0,0,0,0,0,0,0,0,0,0,0,0,0,0,0,0,0,0,0,0,0,0,0,0,0,0,0,0,0,0,0,0,0,0,0,0,0,0,0,0,0,0,0,0,0,0,0,0,0,0,0,0,0,0,0,0,0,0,0,0,0,0,0,0,0,0,0,0,0,0,0,0,0,0,0,0,0,0,0,0,0,0,0,0,0,0,0,0,0,0,0,0,0,0,0,0,0,0,0,0,0,0,0,0,0,0,0,0,0,0,0,0,0,0,0,0,0,0,0,0,0,0,0,0,0,0,0,0,0,0,0,0,0,0,0,0,0,0,0,0,0,0,0,0,0,0,0,0,0,0,0,0,0,0,0,0,0,0,0,0,0,0,0,0,0,0,0,0,0,0,0,0,0,0,0,0
468,488,488,480,467,459,458,459,448,434,432,434,423,409,403,398,395,409,432,440,440,436,425,407,388,384,391,393,404,412,423,430,432,436,437,440,436,429,420,406,388,371,359,353,358,363,364,372,390,398,399,402,405,410,408,395,375,358,343,334,329,327,327,331,338,346,346,344,351,354,355,358,364,373,385,401,419,435,446,456,473,499,520,529,525,522,539,584,624,653,677,695,712,721,725,731,744,760,775,783,785,785,785,784,782,777,772,763,751,737,718,687,641,609,597,608,607,570,528,506,516,537,561,584,612,638,659,679,696,709,714,711,696,663,630,592,552,512,508,531,560,588,603,603,603,595,588,587,588,582,573,565,563,570,577,580,571,558,537,526,517,502,491,482,471,452,435,419,403,390,383,377,367,356,345,338,334,340,341,327,323,318,314,305,293,283,273,272,271,261,250,261,276,289,297,300,302,302,299,295,295,292,288,283,271,254,240,231,220,205,193,198,211,226,238,248,259,265,269,266,262,261,263,263,260,259,257,256,256,254,252,250,249,248,247,245,243,238,236,238,240,241,241,240,238,236,235,235,233,231,230,229,228,227,227,225,225,224,223,220,215,211,212,216,218,218,215,209,201,197,201,207,212,212,212,213,211,212,211,211,213,216,214,214,214,213,213,213,212,215,215,212,213,211,211,212,212,215,211,205,196,192,192,197,202,199,196,200,203,202,200,197,194,198,202,202,198,200,205,210,215,219,225,229,229,231,234,236,238,237,232,232,236,242,251,253,254,255,258,261,266,262,254,238,224,211,198,183,182,194,198,197,202,209,215,219,218,211,195,183,179,181,190,201,202,193,180,168,158,150,139,131,130,140,154,161,164,166,173,180,187,187,184,180,166,160,151,144,138,128,119,118,119,126,133,141,147,145,140,140,139,137,136,133,129,127,127,126,126,123,118,115,115,117,117,116,116,117,114,111,108,100,96,93,91,89,88,86,84,80,80,78,77,75,74,75,72,72,72,71,70,69,68,69,67,68,70,70,70,68,67,67,68,66,64,65,65,65,67,65,64,64,63,63,63,62,62,61,63,62,61,61,60,60,63,65,65,62,59,57,57,56,57,57,58,57,58,55,52,52,52,52,50,49,49,48,49,50,48,50,50,48,48,48,49,46,45,47,48,49,49,46,47,47,48,48,48,46,44,44,44,44,43,43,45,46,45,44,44,44,44,42,42,44,43,42,40,38,38,38,38,38,38,38,38,37,38,39,38,38,37,35,35,35,37,37,39,41,41,41,42,42,42,43,42,42,44,45,46,49,51,51,56,64,72,80,89,93,95,94,93,94,97,95,91,87,87,87,92,100,107,109,106,105,103,101,102,107,118,124,133,142,151,160,165,163,159,159,160,163,168,169,164,166,174,177,174,166,163,160,158,157,155,157,166,172,180,190,200,203,197,189,183,180,175,176,180,182,180,173,164,160,158,148,138,132,129,127,128,131,131,131,137,140,142,140,141,148,151,145,134,123,115,108,100,94,88,84,79,73,67,65,61,59,56,54,50,47,46,43,40,40,40,40,40,42,43,41,41,42,42,45,47,52,52,51,52,53,52,48,41,34,24,18,13,8,7,6,6,6,3,1,0,0,0,0,0,0,0,0,0,0,0,0,0,0,0,0,0,0,0,0,0,0,0,0,0,0,0,0,0,0,0,0,0,0,0,0,0,0,0,0,0,0,0,0,0,0,0,0,0,0,0,0,0,0,0,0,0,0,0,0,0,0,0,0,0,0,0,0,0,0,0,0,0,0,0,0,0,0,0,0,0,0,0,0,0,0,0,0,0,0,0,0,0,0,0,0,0,0,0,0,0,0,0,0,0,0,0,0,0,0,0,0,0,0,0,0,0,0,0,0,0,0,0,0,0,0,0,0,0,0,0,0,0,0,0,0,0,0,0,0,0,0,0,0,0,0,0,0,0,0,0,0,0,0,0,0,0,0,0,0,0,0,0,0,0,0,0,0,0,0,0,0,0,0,0,0,0,0,0,0,0,0,0,0,0,0,0,0,0,0,0,0,0,0,0,0,0,0,0,0,0,0,0,0,0,0,0,0,0,0,0,0,0,0,0,0,0,0,0,0,0,0,0,0,0,0,0,0,0,0,0,0,0,0,0,0,0,0,0,0,0,0,0,0,0,0,0,0,0,0,0,0,0,0,0,0,0,0,0,0,0,0,0,0,0,0,0,0,0,0,0,0,0,0,0,0,0,0,0,0,0,0,0,0,0,0,0,0,0,0,0,0,0,0,0,0,0,0,0,0,0,0,0,0,0,0,0,0,0,0,0,0,0,0,0,0,0,0,0,0,0,0,0,0,0,0,0,0,0,0,0
483,490,482,471,459,449,443,438,433,423,412,421,425,413,399,389,391,408,427,437,436,437,433,420,400,383,381,390,395,404,415,425,427,431,430,428,425,416,401,396,392,385,366,351,349,352,358,367,374,381,387,391,396,404,409,400,377,359,345,334,328,327,327,328,332,335,339,344,343,347,362,369,374,390,404,421,441,460,474,488,504,527,551,564,574,568,565,582,616,648,679,707,730,743,749,753,756,763,773,781,786,788,789,788,786,782,778,768,758,746,729,701,652,605,577,582,590,578,546,510,498,511,530,549,577,601,622,643,661,677,687,692,691,681,658,623,581,539,507,497,510,539,568,569,569,570,580,594,599,587,575,567,558,559,567,563,554,534,515,513,506,496,490,482,472,461,448,433,415,397,382,371,362,351,342,330,319,313,307,299,296,304,313,311,301,292,276,266,264,257,244,252,270,282,292,293,290,287,283,282,284,283,285,285,279,266,260,254,236,218,203,192,192,205,216,229,238,248,257,261,262,261,259,257,258,255,254,254,254,253,250,248,247,247,244,243,242,240,235,233,235,237,237,237,236,235,235,233,233,233,232,229,228,228,227,226,227,223,224,222,220,218,213,210,212,214,214,212,209,204,198,196,200,205,208,208,208,207,206,206,206,206,209,209,208,207,207,209,209,210,207,207,208,206,206,210,211,212,211,207,200,197,199,205,210,209,207,208,210,210,209,208,207,210,214,215,214,212,216,221,225,227,229,232,233,234,237,238,242,246,248,246,245,246,252,257,262,265,266,266,262,257,251,236,228,217,203,190,191,204,210,212,214,218,225,226,219,209,194,182,184,188,196,201,195,187,178,167,159,149,140,134,135,149,163,172,180,182,182,184,189,194,193,185,171,163,150,140,131,121,119,120,127,137,145,153,155,151,149,146,143,143,141,137,136,135,133,134,130,125,122,123,124,122,120,120,119,116,111,104,99,95,95,95,97,98,98,94,89,84,83,83,80,78,78,79,78,78,76,73,72,71,70,70,68,69,70,69,70,67,67,68,67,64,64,65,65,65,65,65,65,64,63,62,62,60,60,62,61,62,62,61,59,59,62,62,62,60,58,57,57,56,56,55,55,56,58,56,54,53,51,52,50,50,51,49,49,48,48,47,49,50,50,49,49,47,47,48,49,49,48,46,47,46,48,47,47,47,46,45,45,45,44,43,43,43,44,44,43,43,44,43,43,42,40,39,39,39,38,37,37,36,36,37,39,38,37,39,38,36,37,34,34,34,34,35,37,36,35,36,38,40,40,42,42,42,42,42,41,41,41,45,50,60,73,85,89,90,86,83,83,84,86,85,85,82,80,80,82,90,96,100,98,97,94,93,89,91,98,102,112,127,142,155,166,173,175,178,181,183,188,190,184,182,180,176,170,161,155,149,146,142,140,140,146,153,161,171,180,183,183,172,164,164,160,159,159,162,170,173,164,155,154,153,150,144,137,132,131,128,126,124,127,130,135,135,135,138,137,130,122,111,102,92,88,85,78,71,69,63,60,56,50,48,46,40,38,35,34,33,31,29,29,28,28,28,29,28,26,23,25,27,27,29,31,32,34,36,38,37,34,28,21,13,7,6,6,6,5,5,3,0,0,0,0,0,0,0,0,0,0,0,0,0,0,0,0,0,0,0,0,0,0,0,0,0,0,0,0,0,0,0,0,0,0,0,0,0,0,0,0,0,0,0,0,0,0,0,0,0,0,0,0,0,0,0,0,0,0,0,0,0,0,0,0,0,0,0,0,0,0,0,0,0,0,0,0,0,0,0,0,0,0,0,0,0,0,0,0,0,0,0,0,0,0,0,0,0,0,0,0,0,0,0,0,0,0,0,0,0,0,0,0,0,0,0,0,0,0,0,0,0,0,0,0,0,0,0,0,0,0,0,0,0,0,0,0,0,0,0,0,0,0,0,0,0,0,0,0,0,0,0,0,0,0,0,0,0,0,0,0,0,0,0,0,0,0,0,0,0,0,0,0,0,0,0,0,0,0,0,0,0,0,0,0,0,0,0,0,0,0,0,0,0,0,0,0,0,0,0,0,0,0,0,0,0,0,0,0,0,0,0,0,0,0,0,0,0,0,0,0,0,0,0,0,0,0,0,0,0,0,0,0,0,0,0,0,0,0,0,0,0,0,0,0,0,0,0,0,0,0,0,0,0,0,0,0,0,0,0,0,0,0,0,0,0,0,0,0,0,0,0,0,0,0,0,0,0,0,0,0,0,0,0,0,0,0,0,0,0,0,0,0,0,0,0,0,0,0,0,0,0,0,0,0,0,0,0,0,0,0,0,0,0,0,0,0,0,0,0,0,0,0,0,0,0,0,0,0,0,0,0,0
480,487,477,466,455,444,432,421,415,410,400,404,411,399,391,384,385,403,421,433,433,434,430,420,402,390,380,385,393,399,408,417,420,420,419,414,411,401,387,382,382,377,363,350,345,349,354,360,366,376,384,391,398,409,411,396,376,356,345,334,328,327,327,329,336,343,357,372,367,365,370,387,392,398,407,415,433,459,481,501,530,552,572,591,609,621,622,624,644,664,685,703,721,741,754,764,773,779,781,784,789,791,790,790,785,782,780,774,767,755,740,714,671,621,580,558,558,557,551,524,494,491,502,518,540,564,588,610,624,637,651,659,664,660,650,639,612,578,541,506,485,499,527,537,548,570,591,603,593,578,568,559,549,547,546,536,527,504,495,493,488,484,485,482,472,465,450,435,418,398,384,375,367,360,352,343,333,323,312,301,289,284,292,297,297,296,282,266,260,255,241,248,264,274,283,283,278,271,265,265,271,270,270,275,278,278,275,263,246,235,219,200,186,186,194,206,219,232,242,245,248,253,257,257,257,254,252,252,251,251,252,249,248,246,242,241,242,240,238,236,232,228,228,232,234,235,235,231,230,230,230,230,228,226,223,219,218,217,219,220,220,219,217,212,210,210,210,212,211,211,207,199,194,195,200,202,204,206,205,202,201,199,199,203,203,202,203,203,203,202,202,202,202,199,197,204,208,209,209,210,209,207,208,211,209,207,206,205,204,205,205,206,208,211,217,220,222,223,225,230,234,237,238,241,241,241,242,243,246,250,253,254,254,256,257,260,266,271,273,269,263,256,246,234,223,211,202,194,202,214,222,226,228,229,231,230,222,210,195,186,186,193,199,202,198,190,178,166,155,146,138,135,144,159,171,181,192,199,201,200,204,209,204,197,183,169,152,139,128,121,119,127,137,149,158,163,163,159,156,154,151,146,144,141,141,140,137,135,132,130,127,130,130,127,124,119,113,109,103,101,99,98,100,104,106,106,106,102,95,87,87,89,88,87,86,85,83,81,80,78,77,78,77,74,73,73,72,70,71,68,67,66,65,65,66,68,68,68,67,66,65,65,63,61,60,60,61,61,61,60,60,60,59,58,59,59,58,59,60,58,57,57,58,57,56,56,56,54,54,53,54,54,52,52,53,50,48,49,49,50,49,49,50,50,48,48,47,48,49,49,48,46,46,48,47,47,46,46,47,45,45,43,43,43,44,43,42,42,42,42,44,43,43,41,40,38,39,39,39,37,37,37,37,36,38,36,36,38,39,36,37,34,35,35,35,35,34,35,34,34,34,35,37,39,39,41,42,41,40,40,40,39,41,44,53,65,69,74,72,69,70,72,74,73,75,74,72,75,79,83,86,90,89,88,88,86,85,85,86,93,105,118,131,144,160,175,190,197,201,199,194,193,190,186,177,167,161,156,154,149,145,141,139,135,134,134,140,147,159,166,169,160,157,156,151,145,143,143,147,161,159,147,137,130,126,126,123,116,115,109,106,104,101,102,109,110,110,108,108,104,99,96,90,84,80,73,69,63,58,53,46,43,39,37,36,33,30,29,31,30,31,31,33,31,30,29,27,26,25,22,21,20,20,18,17,15,16,20,22,22,23,19,12,9,5,5,5,4,3,2,1,0,0,0,0,0,0,0,0,0,0,0,0,0,0,0,0,0,0,0,0,0,0,0,0,0,0,0,0,0,0,0,0,0,0,0,0,0,0,0,0,0,0,0,0,0,0,0,0,0,0,0,0,0,0,0,0,0,0,0,0,0,0,0,0,0,0,0,0,0,0,0,0,0,0,0,0,0,0,0,0,0,0,0,0,0,0,0,0,0,0,0,0,0,0,0,0,0,0,0,0,0,0,0,0,0,0,0,0,0,0,0,0,0,0,0,0,0,0,0,0,0,0,0,0,0,0,0,0,0,0,0,0,0,0,0,0,0,0,0,0,0,0,0,0,0,0,0,0,0,0,0,0,0,0,0,0,0,0,0,0,0,0,0,0,0,0,0,0,0,0,0,0,0,0,0,0,0,0,0,0,0,0,0,0,0,0,0,0,0,0,0,0,0,0,0,0,0,0,0,0,0,0,0,0,0,0,0,0,0,0,0,0,0,0,0,0,0,0,0,0,0,0,0,0,0,0,0,0,0,0,0,0,0,0,0,0,0,0,0,0,0,0,0,0,0,0,0,0,0,0,0,0,0,0,0,0,0,0,0,0,0,0,0,0,0,0,0,0,0,0,0,0,0,0,0,0,0,0,0,0,0,0,0,0,0,0,0,0,0,0,0,0,0,0,0,0,0,0,0,0,0,0,0,0,0,0,0,0,0,0,0,0,0,0,0,0,0,0,0,0,0,0,0,0,0,0,0,0,0,0,0,0
491,487,473,461,451,441,429,415,402,395,392,389,394,391,381,375,383,401,414,426,434,432,431,423,404,388,377,377,396,401,406,413,415,414,408,403,397,389,377,373,370,361,355,347,342,348,357,360,366,376,384,393,403,411,413,398,376,362,347,336,329,327,327,332,338,353,372,391,393,383,378,392,414,426,435,434,429,434,451,474,505,536,563,590,614,634,652,665,675,681,688,708,723,736,752,765,774,784,787,788,789,792,792,789,787,784,781,777,772,761,750,727,688,650,614,581,557,540,533,518,502,489,483,492,512,533,557,578,593,607,619,627,630,628,623,614,598,570,535,494,478,490,513,533,555,580,601,601,588,570,558,545,531,523,516,500,487,480,477,471,471,477,480,479,469,459,447,434,416,399,388,380,371,365,359,352,343,338,327,316,299,283,276,279,287,287,278,267,254,247,241,245,261,270,274,268,263,261,253,250,256,255,254,260,266,270,270,262,248,234,222,212,199,189,181,185,198,211,218,222,229,234,237,242,246,252,253,251,254,249,246,244,246,244,244,243,242,240,238,236,234,232,228,225,226,231,232,229,228,226,226,226,222,216,212,209,207,206,206,209,210,212,215,215,213,210,206,202,201,204,206,203,199,197,190,193,193,193,195,193,192,199,197,192,197,200,202,200,199,198,197,198,199,196,190,192,199,202,203,207,209,210,211,209,203,201,201,197,191,194,199,203,205,208,215,220,225,229,231,233,236,238,239,238,240,242,243,244,244,245,248,250,251,254,257,256,258,261,264,267,262,253,241,233,224,215,208,202,208,221,233,240,241,241,239,236,228,217,199,189,191,202,207,206,203,194,182,172,161,151,140,136,151,165,178,196,210,217,220,222,225,224,219,212,198,177,156,138,128,122,124,135,148,167,184,186,182,175,167,160,154,152,150,149,147,144,139,136,133,135,136,136,133,127,121,114,108,105,102,102,104,108,109,111,108,104,103,101,95,91,89,91,91,89,87,86,84,82,81,81,80,82,80,78,81,77,71,70,70,69,68,68,68,69,69,69,70,71,69,66,65,64,64,63,63,63,62,62,62,60,60,60,59,58,58,58,57,58,60,58,59,57,56,56,56,55,55,54,54,53,54,54,53,52,51,50,50,51,49,49,50,48,47,46,46,48,47,47,47,47,46,47,46,47,45,44,44,45,45,46,46,43,43,43,44,43,42,42,43,43,42,43,42,41,40,38,38,39,39,39,38,35,37,37,37,36,36,38,39,36,35,34,35,34,35,36,35,33,33,32,33,33,35,37,39,38,38,38,39,40,39,37,37,38,41,45,50,56,58,55,57,60,63,61,61,60,60,65,71,75,80,82,79,76,77,78,76,76,80,85,95,110,126,141,157,170,183,200,212,209,200,194,191,186,178,172,169,163,161,159,155,150,144,140,135,129,126,130,137,143,144,146,144,142,140,138,131,130,128,129,136,136,129,119,115,111,107,103,98,95,93,90,86,85,89,90,90,90,89,87,81,79,74,68,65,59,55,50,46,44,40,36,36,35,35,36,35,36,39,44,47,49,49,48,46,43,40,38,39,38,33,27,25,22,20,17,14,14,13,12,12,9,9,7,6,4,4,4,4,1,0,0,0,0,0,0,0,0,0,0,0,0,0,0,0,0,0,0,0,0,0,0,0,0,0,0,0,0,0,0,0,0,0,0,0,0,0,0,0,0,0,0,0,0,0,0,0,0,0,0,0,0,0,0,0,0,0,0,0,0,0,0,0,0,0,0,0,0,0,0,0,0,0,0,0,0,0,0,0,0,0,0,0,0,0,0,0,0,0,0,0,0,0,0,0,0,0,0,0,0,0,0,0,0,0,0,0,0,0,0,0,0,0,0,0,0,0,0,0,0,0,0,0,0,0,0,0,0,0,0,0,0,0,0,0,0,0,0,0,0,0,0,0,0,0,0,0,0,0,0,0,0,0,0,0,0,0,0,0,0,0,0,0,0,0,0,0,0,0,0,0,0,0,0,0,0,0,0,0,0,0,0,0,0,0,0,0,0,0,0,0,0,0,0,0,0,0,0,0,0,0,0,0,0,0,0,0,0,0,0,0,0,0,0,0,0,0,0,0,0,0,0,0,0,0,0,0,0,0,0,0,0,0,0,0,0,0,0,0,0,0,0,0,0,0,0,0,0,0,0,0,0,0,0,0,0,0,0,0,0,0,0,0,0,0,0,0,0,0,0,0,0,0,0,0,0,0,0,0,0,0,0,0,0,0,0,0,0,0,0,0,0,0,0,0,0,0,0,0,0,0,0,0,0,0,0,0,0,0,0,0,0,0,0,0,0,0,0,0,0,0,0,0,0,0,0,0,0,0,0,0,0,0
483,480,472,462,453,439,424,411,405,401,391,380,373,373,369,368,384,396,407,419,429,426,424,418,401,384,374,369,377,380,387,398,411,417,417,408,393,385,380,377,367,361,355,347,340,344,352,359,364,370,379,393,403,412,414,400,380,364,346,336,329,327,327,331,342,362,379,394,405,401,392,405,426,448,467,472,458,461,459,454,463,493,523,556,584,601,614,628,640,655,669,684,708,727,745,761,773,782,785,786,786,787,788,787,783,782,778,776,772,766,758,746,725,697,663,636,612,591,574,554,532,510,495,482,488,505,528,551,568,582,592,601,603,598,590,581,556,529,500,473,479,502,520,530,549,572,589,579,566,556,544,532,515,488,471,461,463,463,457,455,453,462,468,472,466,454,442,434,420,404,394,385,378,369,363,357,347,339,331,323,308,292,269,263,274,280,270,262,251,242,235,244,260,269,267,254,248,248,241,238,242,242,237,245,252,256,260,261,253,245,237,228,218,205,193,182,179,186,197,199,206,214,217,220,224,231,239,241,246,246,244,242,242,241,244,245,244,240,238,235,234,237,236,230,221,222,220,219,217,214,214,213,211,208,207,208,209,206,204,202,200,198,200,200,200,198,196,195,194,194,193,193,193,192,187,185,185,183,181,180,187,192,194,189,188,192,196,198,194,193,194,195,196,192,185,185,192,195,196,198,200,203,206,202,197,191,186,184,189,197,205,210,212,212,214,221,226,228,231,232,230,229,230,230,229,227,227,229,229,232,232,236,241,242,244,242,244,247,251,257,261,258,249,242,236,228,219,213,214,224,233,240,245,246,243,237,228,217,204,195,201,210,213,212,207,196,185,171,162,151,143,138,150,165,181,194,207,218,223,230,233,232,224,216,200,178,157,139,128,125,127,140,156,182,205,208,202,190,174,164,160,161,162,160,157,152,145,140,142,143,141,137,132,124,117,110,105,105,107,110,113,115,113,110,106,105,104,104,102,97,94,91,92,93,89,86,84,83,82,79,79,80,81,77,77,76,72,69,69,69,68,71,71,69,72,71,71,71,70,69,66,66,65,63,63,62,63,63,61,62,61,60,58,59,58,59,59,57,57,57,56,56,56,56,55,54,53,53,55,55,53,53,53,53,52,50,52,52,50,50,52,49,48,47,48,48,47,46,47,46,46,47,47,47,46,43,43,44,45,44,43,44,44,45,43,43,43,41,41,41,42,41,40,39,39,39,38,38,38,38,37,37,38,36,36,37,37,38,36,35,34,35,33,33,35,34,33,33,33,35,35,34,34,36,36,36,36,36,35,37,36,33,33,35,35,36,38,41,41,46,50,53,53,50,51,51,52,56,63,69,75,75,73,68,69,71,71,71,76,88,101,114,124,133,145,157,170,186,205,215,213,208,205,197,189,183,179,176,173,171,169,166,159,151,141,133,127,123,124,126,125,127,126,128,126,120,116,114,112,111,110,113,114,111,107,101,94,91,85,81,79,76,73,73,73,75,77,78,76,74,69,66,63,58,53,47,46,42,42,44,45,49,49,47,48,48,47,52,55,59,62,62,64,63,60,56,52,53,53,51,52,50,46,41,35,31,26,22,18,14,10,7,9,12,10,7,5,5,3,1,0,0,0,0,0,0,0,0,0,0,0,0,0,0,0,0,0,0,0,0,0,0,0,0,0,0,0,0,0,0,0,0,0,0,0,0,0,0,0,0,0,0,0,0,0,0,0,0,0,0,0,0,0,0,0,0,0,0,0,0,0,0,0,0,0,0,0,0,0,0,0,0,0,0,0,0,0,0,0,0,0,0,0,0,0,0,0,0,0,0,0,0,0,0,0,0,0,0,0,0,0,0,0,0,0,0,0,0,0,0,0,0,0,0,0,0,0,0,0,0,0,0,0,0,0,0,0,0,0,0,0,0,0,0,0,0,0,0,0,0,0,0,0,0,0,0,0,0,0,0,0,0,0,0,0,0,0,0,0,0,0,0,0,0,0,0,0,0,0,0,0,0,0,0,0,0,0,0,0,0,0,0,0,0,0,0,0,0,0,0,0,0,0,0,0,0,0,0,0,0,0,0,0,0,0,0,0,0,0,0,0,0,0,0,0,0,0,0,0,0,0,0,0,0,0,0,0,0,0,0,0,0,0,0,0,0,0,0,0,0,0,0,0,0,0,0,0,0,0,0,0,0,0,0,0,0,0,0,0,0,0,0,0,0,0,0,0,0,0,0,0,0,0,0,0,0,0,0,0,0,0,0,0,0,0,0,0,0,0,0,0,0,0,0,0,0,0,0,0,0,0,0,0,0,0,0,0,0,0,0,0,0,0,0,0,0,0,0,0,0,0,0,0,0,0,0,0,0,0,0,0,0,0
458,469,470,466,458,445,432,427,421,413,402,392,379,370,365,368,378,386,401,422,427,423,423,411,392,378,367,359,356,365,381,396,411,422,423,414,401,393,391,388,382,376,365,356,346,340,346,356,365,374,386,404,409,413,418,405,383,363,347,334,328,327,327,331,344,362,374,389,410,413,406,414,437,461,483,496,495,504,510,498,485,484,515,555,585,591,587,588,594,606,620,636,661,684,708,735,756,775,782,785,784,783,782,781,778,775,772,768,765,757,754,752,745,733,712,694,673,654,628,604,579,548,517,491,480,492,509,529,546,560,570,576,578,576,568,556,525,488,468,465,482,494,504,515,524,544,566,561,548,537,527,511,492,466,445,440,447,439,432,434,439,448,452,458,461,448,434,425,418,402,392,385,379,368,361,353,346,339,331,319,306,294,274,255,264,274,264,254,248,239,232,244,257,264,257,245,237,235,228,228,232,229,224,230,239,241,245,253,253,249,241,233,225,219,211,198,184,176,175,181,185,193,198,205,210,212,222,227,231,237,239,242,242,239,236,240,245,246,239,234,229,231,232,227,222,218,218,216,218,218,218,218,215,214,216,220,222,219,215,211,207,200,201,198,196,196,194,192,191,189,191,194,193,195,196,195,196,192,187,182,180,185,187,184,180,179,183,192,190,187,189,190,188,183,178,177,182,184,187,185,184,186,191,191,188,181,178,186,198,204,211,217,221,220,220,223,229,229,226,223,221,221,221,221,219,214,212,213,216,220,221,223,226,229,230,229,232,236,237,242,248,251,253,253,250,243,234,225,226,235,239,245,250,252,247,238,229,218,207,203,205,210,213,213,211,204,189,177,167,157,146,141,149,162,174,180,190,204,217,230,237,236,226,215,197,177,161,145,135,128,128,140,161,188,210,212,206,189,178,172,170,173,171,168,162,156,150,149,149,147,146,141,133,122,113,108,108,114,122,127,122,118,115,113,111,109,106,106,104,99,96,96,97,95,91,90,86,83,84,80,79,79,77,77,75,74,73,71,71,71,70,71,72,72,74,74,73,73,73,70,69,66,65,64,63,63,62,62,62,62,60,61,59,59,60,61,60,60,59,58,57,59,59,58,57,57,55,53,55,54,53,53,52,50,51,51,53,54,52,52,51,48,46,45,45,46,46,45,46,47,47,47,47,46,45,43,42,44,45,44,43,42,42,42,41,41,41,40,41,41,40,40,40,38,38,39,39,40,39,40,38,39,38,37,36,38,38,38,36,36,36,35,34,34,35,33,33,34,33,33,33,34,33,35,36,36,35,36,34,33,33,32,33,33,32,34,33,32,33,36,41,43,41,43,44,44,45,53,58,63,67,67,64,58,59,62,63,68,79,94,103,108,112,120,130,144,158,172,186,198,209,215,213,206,200,198,196,193,191,186,183,174,167,157,146,139,133,124,120,117,114,110,110,110,108,105,102,99,96,96,95,95,99,96,92,88,83,79,74,71,69,67,64,62,62,63,62,63,62,61,57,55,52,48,46,45,46,49,53,59,63,63,65,63,65,62,57,63,68,74,79,84,86,83,75,69,67,70,72,72,70,69,65,58,51,47,41,34,31,23,10,7,8,9,8,5,4,3,2,0,0,0,0,0,0,0,0,0,0,0,0,0,0,0,0,0,0,0,0,0,0,0,0,0,0,0,0,0,0,0,0,0,0,0,0,0,0,0,0,0,0,0,0,0,0,0,0,0,0,0,0,0,0,0,0,0,0,0,0,0,0,0,0,0,0,0,0,0,0,0,0,0,0,0,0,0,0,0,0,0,0,0,0,0,0,0,0,0,0,0,0,0,0,0,0,0,0,0,0,0,0,0,0,0,0,0,0,0,0,0,0,0,0,0,0,0,0,0,0,0,0,0,0,0,0,0,0,0,0,0,0,0,0,0,0,0,0,0,0,0,0,0,0,0,0,0,0,0,0,0,0,0,0,0,0,0,0,0,0,0,0,0,0,0,0,0,0,0,0,0,0,0,0,0,0,0,0,0,0,0,0,0,0,0,0,0,0,0,0,0,0,0,0,0,0,0,0,0,0,0,0,0,0,0,0,0,0,0,0,0,0,0,0,0,0,0,0,0,0,0,0,0,0,0,0,0,0,0,0,0,0,0,0,0,0,0,0,0,0,0,0,0,0,0,0,0,0,0,0,0,0,0,0,0,0,0,0,0,0,0,0,0,0,0,0,0,0,0,0,0,0,0,0,0,0,0,0,0,0,0,0,0,0,0,0,0,0,0,0,0,0,0,0,0,0,0,0,0,0,0,0,0,0,0,0,0,0,0,0,0,0,0,0,0,0,0,0,0,0,0,0,0,0,0,0,0,0,0,0,0,0,0,0
442,456,465,466,460,456,450,443,431,421,411,400,391,380,368,364,368,375,395,414,420,413,413,413,404,384,369,358,352,360,380,400,414,419,411,402,401,402,404,396,386,379,371,361,350,340,339,359,375,386,390,395,394,397,404,404,387,364,347,335,328,327,327,332,340,356,370,385,402,415,421,430,447,465,487,507,527,538,546,547,541,528,535,563,595,592,577,570,567,572,581,595,614,636,658,682,710,741,763,777,780,777,774,773,771,765,761,756,752,746,741,736,734,733,731,727,719,700,675,648,620,587,550,513,485,478,498,514,528,542,553,556,561,559,551,536,510,473,456,467,486,495,495,499,505,518,534,536,528,522,510,491,470,448,430,419,422,420,419,424,432,436,433,440,445,433,419,414,410,397,391,385,375,364,355,347,341,336,329,315,302,288,275,253,250,260,255,245,242,234,226,242,255,254,243,236,229,224,219,215,218,219,214,221,229,236,238,243,249,247,240,229,219,217,219,218,206,190,176,169,169,176,181,188,195,200,206,211,216,223,225,228,232,236,236,236,241,241,236,233,229,227,227,224,224,225,226,223,224,227,231,231,229,227,225,227,228,225,221,216,208,206,211,213,212,212,211,207,202,199,201,208,208,205,207,207,205,203,200,191,185,180,176,175,175,176,173,175,174,175,178,185,190,188,182,171,168,170,171,171,171,171,173,173,174,171,169,182,195,200,207,212,215,216,217,220,222,222,219,218,216,214,215,214,209,203,199,198,200,204,207,210,215,213,214,214,219,226,229,231,235,241,247,250,251,250,247,239,235,240,250,257,260,264,257,248,236,226,218,214,216,219,219,218,215,206,192,179,169,159,149,145,158,173,181,188,194,207,219,227,233,234,226,216,197,177,161,147,137,128,129,143,160,183,198,197,192,190,188,187,185,185,179,171,165,158,157,156,156,153,150,146,137,122,112,109,113,123,132,134,129,122,118,118,115,112,108,107,103,100,100,100,100,98,94,93,91,90,88,86,85,83,80,79,77,75,72,74,72,71,71,72,71,74,75,75,74,75,76,75,72,70,70,69,66,64,63,64,62,61,62,63,60,60,60,61,60,60,59,60,60,59,59,59,59,56,55,55,54,53,54,54,54,54,54,54,54,54,53,52,50,47,45,45,47,46,44,47,44,45,47,47,45,45,43,41,42,41,42,43,43,44,44,43,43,45,44,43,43,41,39,39,38,36,37,39,38,39,38,39,41,40,38,35,35,35,36,37,36,35,36,34,33,36,37,34,34,33,34,33,33,33,33,35,35,34,35,36,34,32,30,30,33,31,29,30,31,30,31,32,35,34,36,39,38,37,41,48,51,52,56,56,52,50,51,55,61,70,80,87,90,92,94,103,116,130,143,153,160,170,178,186,197,199,205,211,213,213,212,207,196,181,170,162,153,145,139,134,129,127,122,119,116,114,109,107,104,101,96,92,90,87,84,83,80,78,76,72,70,70,71,72,71,67,65,63,61,59,55,55,54,54,54,56,60,62,64,68,72,74,76,78,80,80,77,73,73,75,82,93,104,112,112,105,94,89,92,94,95,92,88,82,73,66,58,50,45,39,33,23,11,5,7,5,5,6,4,2,1,0,0,0,0,0,0,0,0,0,0,0,0,0,0,0,0,0,0,0,0,0,0,0,0,0,0,0,0,0,0,0,0,0,0,0,0,0,0,0,0,0,0,0,0,0,0,0,0,0,0,0,0,0,0,0,0,0,0,0,0,0,0,0,0,0,0,0,0,0,0,0,0,0,0,0,0,0,0,0,0,0,0,0,0,0,0,0,0,0,0,0,0,0,0,0,0,0,0,0,0,0,0,0,0,0,0,0,0,0,0,0,0,0,0,0,0,0,0,0,0,0,0,0,0,0,0,0,0,0,0,0,0,0,0,0,0,0,0,0,0,0,0,0,0,0,0,0,0,0,0,0,0,0,0,0,0,0,0,0,0,0,0,0,0,0,0,0,0,0,0,0,0,0,0,0,0,0,0,0,0,0,0,0,0,0,0,0,0,0,0,0,0,0,0,0,0,0,0,0,0,0,0,0,0,0,0,0,0,0,0,0,0,0,0,0,0,0,0,0,0,0,0,0,0,0,0,0,0,0,0,0,0,0,0,0,0,0,0,0,0,0,0,0,0,0,0,0,0,0,0,0,0,0,0,0,0,0,0,0,0,0,0,0,0,0,0,0,0,0,0,0,0,0,0,0,0,0,0,0,0,0,0,0,0,0,0,0,0,0,0,0,0,0,0,0,0,0,0,0,0,0,0,0,0,0,0,0,0,0,0,0,0,0,0,0,0,0,0,0,0,0,0,0,0,0,0,0,0,0,0,0,0,0,0
432,450,449,451,459,457,447,439,433,424,414,407,399,391,383,377,369,362,371,383,390,395,394,398,403,395,377,364,354,355,372,386,392,394,392,394,402,409,408,396,388,381,372,362,354,346,340,343,360,370,369,375,383,393,397,396,382,366,346,333,327,327,327,335,342,350,360,371,380,390,401,411,422,432,451,481,514,543,567,586,598,591,591,597,606,596,572,562,561,553,544,552,570,585,606,631,663,687,713,742,761,769,767,760,758,754,747,739,736,729,722,712,706,710,713,713,715,712,701,682,651,621,585,548,506,475,477,502,519,532,541,546,544,541,531,511,487,460,448,459,469,472,476,484,494,503,508,512,509,504,488,472,451,430,414,399,396,400,405,414,425,424,417,420,423,412,401,400,399,395,384,374,371,365,356,342,333,329,324,314,304,288,274,262,245,240,249,242,236,229,225,242,250,245,234,228,220,218,215,204,202,204,212,222,227,231,235,239,241,244,242,231,219,208,204,207,213,209,198,186,172,166,169,174,178,183,192,197,201,205,209,213,220,227,233,236,235,235,232,231,230,228,229,230,232,235,237,233,229,231,238,241,238,235,234,235,235,231,226,220,210,212,219,221,222,222,219,215,213,213,212,210,211,209,209,207,204,200,195,188,185,180,176,179,184,187,183,180,176,174,173,172,174,179,171,168,168,167,167,165,164,163,163,161,160,161,163,168,181,187,193,198,199,199,204,213,215,213,210,209,207,205,204,203,197,194,191,189,189,194,195,195,196,196,195,197,204,213,220,228,234,238,239,237,235,235,239,241,244,245,250,254,259,262,259,255,248,239,234,228,227,227,228,225,221,209,194,184,173,163,152,146,156,170,180,189,196,203,208,215,222,225,219,207,191,174,161,150,135,129,134,142,152,162,171,177,185,192,198,204,203,195,183,175,172,169,168,164,161,157,155,149,140,126,113,114,123,132,137,136,131,127,124,121,117,113,108,104,103,104,105,104,102,99,97,94,93,95,94,91,89,87,86,85,83,80,74,74,74,72,73,72,72,75,77,78,78,76,76,78,78,77,78,75,72,68,65,65,64,63,63,64,65,62,63,62,61,62,62,62,60,60,60,60,59,59,59,57,56,55,55,54,56,56,57,56,55,54,53,55,52,49,48,48,47,46,44,45,45,44,46,47,47,45,42,42,44,42,40,40,41,44,44,44,45,44,44,42,41,40,41,40,38,37,37,37,37,40,40,40,40,39,37,38,37,35,34,34,36,32,33,33,35,38,34,34,34,33,32,32,33,33,32,32,33,32,33,33,33,32,32,29,30,30,29,29,29,30,30,31,32,32,32,30,32,31,29,35,43,46,48,50,47,48,51,55,59,63,66,70,71,74,79,91,105,117,128,135,138,144,151,161,173,188,209,226,235,234,233,225,211,191,175,166,158,152,147,145,145,144,140,139,136,131,127,122,116,112,107,100,95,90,84,80,79,78,81,83,85,86,88,88,85,81,74,70,66,60,60,64,66,67,72,77,81,82,82,85,88,91,94,97,100,100,94,86,85,90,101,118,131,135,130,117,108,109,112,118,112,100,91,82,72,62,52,46,41,36,26,16,11,7,6,5,5,5,4,4,1,0,0,0,0,0,0,0,0,0,0,0,0,0,0,0,0,0,0,0,0,0,0,0,0,0,0,0,0,0,0,0,0,0,0,0,0,0,0,0,0,0,0,0,0,0,0,0,0,0,0,0,0,0,0,0,0,0,0,0,0,0,0,0,0,0,0,0,0,0,0,0,0,0,0,0,0,0,0,0,0,0,0,0,0,0,0,0,0,0,0,0,0,0,0,0,0,0,0,0,0,0,0,0,0,0,0,0,0,0,0,0,0,0,0,0,0,0,0,0,0,0,0,0,0,0,0,0,0,0,0,0,0,0,0,0,0,0,0,0,0,0,0,0,0,0,0,0,0,0,0,0,0,0,0,0,0,0,0,0,0,0,0,0,0,0,0,0,0,0,0,0,0,0,0,0,0,0,0,0,0,0,0,0,0,0,0,0,0,0,0,0,0,0,0,0,0,0,0,0,0,0,0,0,0,0,0,0,0,0,0,0,0,0,0,0,0,0,0,0,0,0,0,0,0,0,0,0,0,0,0,0,0,0,0,0,0,0,0,0,0,0,0,0,0,0,0,0,0,0,0,0,0,0,0,0,0,0,0,0,0,0,0,0,0,0,0,0,0,0,0,0,0,0,0,0,0,0,0,0,0,0,0,0,0,0,0,0,0,0,0,0,0,0,0,0,0,0,0,0,0,0,0,0,0,0,0,0,0,0,0,0,0,0,0,0,0,0,0,0,0,0,0,0,0,0,0,0,0,0,0,0,0,0,0
409,426,434,439,451,451,442,433,423,414,406,401,395,392,390,391,387,371,358,357,364,373,381,387,396,400,388,373,357,349,360,369,373,377,382,389,400,409,408,402,398,391,380,365,354,349,346,340,335,347,364,376,391,401,406,401,391,373,351,337,327,327,327,332,340,344,352,362,374,392,409,423,439,455,465,479,497,521,549,579,607,618,630,635,627,613,586,561,557,556,542,521,516,531,559,585,614,638,667,695,718,739,751,749,743,740,733,725,719,713,700,677,666,674,685,690,691,689,687,685,675,650,617,585,545,500,471,479,500,520,522,523,521,516,506,482,466,450,439,440,445,453,461,472,487,494,497,494,482,465,449,441,435,418,398,383,379,382,393,405,413,410,405,405,403,397,391,387,383,385,376,367,358,352,346,333,319,314,311,308,299,285,269,261,249,228,231,234,233,223,226,243,246,240,232,224,215,211,213,200,196,207,215,219,223,225,229,233,237,242,241,234,225,214,204,195,193,198,200,198,187,175,166,162,166,171,179,185,188,191,196,202,212,217,221,226,236,241,241,238,234,232,234,237,238,242,243,242,238,237,237,240,242,244,244,243,243,238,234,227,216,215,224,229,228,225,223,221,220,221,218,214,212,211,209,206,201,193,188,188,189,187,189,192,196,196,192,189,186,183,178,174,171,171,170,172,172,173,173,174,173,168,164,164,160,157,157,158,162,170,178,180,182,184,191,197,202,205,202,198,197,194,193,194,190,183,180,180,178,180,181,181,181,185,192,200,209,216,224,232,235,234,230,224,220,214,216,223,229,231,232,237,242,251,254,256,256,254,252,249,248,244,240,231,221,209,195,185,174,162,153,148,157,166,174,181,187,192,198,207,213,216,212,203,190,175,163,148,135,131,139,151,159,165,172,177,185,201,206,209,208,201,189,185,186,181,174,169,164,160,158,150,138,122,115,122,134,141,142,138,134,129,123,120,117,115,111,104,106,107,107,105,101,100,98,95,96,97,96,95,93,92,90,89,85,78,73,72,73,72,72,73,73,77,80,79,79,79,79,80,79,79,80,79,76,72,71,72,71,70,71,71,70,68,67,66,63,63,65,63,60,58,58,59,59,60,59,58,57,56,56,56,56,57,57,58,58,57,56,56,56,53,50,49,49,48,45,43,43,45,45,44,44,44,45,45,42,41,42,43,43,45,44,45,45,44,44,43,41,41,42,40,38,38,38,37,40,42,41,39,39,40,40,40,39,38,36,34,34,35,35,33,34,35,35,33,31,33,32,33,32,33,32,34,32,32,32,32,30,31,32,29,31,34,32,30,29,29,28,30,30,29,28,29,31,28,27,32,35,39,42,45,45,42,45,48,49,53,57,60,66,75,84,92,101,112,119,120,121,122,129,139,156,175,196,219,234,240,233,225,214,197,181,172,161,158,161,162,166,165,162,157,151,148,138,134,130,126,119,111,104,96,89,85,88,95,99,102,105,106,107,104,98,90,82,75,67,62,66,75,79,86,94,99,102,105,104,106,108,111,117,122,124,118,109,100,100,108,122,139,145,142,134,125,121,125,130,125,106,94,87,79,68,59,51,47,43,36,25,17,8,5,7,8,6,5,4,2,0,0,0,0,0,0,0,0,0,0,0,0,0,0,0,0,0,0,0,0,0,0,0,0,0,0,0,0,0,0,0,0,0,0,0,0,0,0,0,0,0,0,0,0,0,0,0,0,0,0,0,0,0,0,0,0,0,0,0,0,0,0,0,0,0,0,0,0,0,0,0,0,0,0,0,0,0,0,0,0,0,0,0,0,0,0,0,0,0,0,0,0,0,0,0,0,0,0,0,0,0,0,0,0,0,0,0,0,0,0,0,0,0,0,0,0,0,0,0,0,0,0,0,0,0,0,0,0,0,0,0,0,0,0,0,0,0,0,0,0,0,0,0,0,0,0,0,0,0,0,0,0,0,0,0,0,0,0,0,0,0,0,0,0,0,0,0,0,0,0,0,0,0,0,0,0,0,0,0,0,0,0,0,0,0,0,0,0,0,0,0,0,0,0,0,0,0,0,0,0,0,0,0,0,0,0,0,0,0,0,0,0,0,0,0,0,0,0,0,0,0,0,0,0,0,0,0,0,0,0,0,0,0,0,0,0,0,0,0,0,0,0,0,0,0,0,0,0,0,0,0,0,0,0,0,0,0,0,0,0,0,0,0,0,0,0,0,0,0,0,0,0,0,0,0,0,0,0,0,0,0,0,0,0,0,0,0,0,0,0,0,0,0,0,0,0,0,0,0,0,0,0,0,0,0,0,0,0,0,0,0,0,0,0,0,0,0,0,0,0,0,0,0,0,0,0,0,0,0,0,0,0,0,0,0
390,399,415,429,442,441,431,423,417,404,394,391,389,386,385,384,387,385,376,359,353,357,367,373,379,389,383,372,354,342,352,360,366,372,378,386,396,403,403,407,408,400,386,370,358,349,346,343,336,337,357,368,377,388,402,406,397,379,354,337,327,327,327,330,342,359,372,380,384,394,410,422,444,474,500,517,530,544,559,575,587,605,627,650,650,636,610,578,551,537,536,523,496,486,506,534,564,591,619,649,669,687,714,732,726,720,713,708,701,695,687,669,645,638,645,655,663,663,662,662,659,655,642,612,579,538,495,465,468,487,481,470,465,466,462,449,442,440,435,434,436,438,451,474,490,488,480,468,444,431,423,416,405,398,387,371,362,366,383,398,404,404,397,390,388,384,378,373,374,374,372,365,350,342,336,327,316,306,305,301,291,278,259,248,247,235,223,228,226,220,231,239,232,228,222,217,208,202,204,195,197,204,210,213,218,221,226,230,232,236,242,242,235,228,218,204,192,183,182,184,185,182,175,165,160,162,165,172,177,182,186,191,198,203,210,217,227,233,240,241,236,233,233,232,234,236,241,244,244,245,244,241,242,247,249,249,248,245,241,233,222,220,228,234,233,230,228,228,225,223,220,217,215,214,212,208,201,194,197,203,205,203,204,205,206,205,202,198,193,187,178,174,177,181,183,180,176,180,183,183,180,174,171,170,165,161,160,156,154,159,165,164,166,172,176,182,185,191,190,188,185,180,179,180,177,172,170,169,167,170,174,180,187,192,201,214,222,225,230,231,228,222,216,211,207,201,200,209,210,211,215,223,231,242,250,255,259,263,267,264,261,256,245,233,218,202,189,178,167,158,157,158,158,167,178,187,194,199,203,208,210,213,208,202,192,176,162,149,134,133,142,150,156,162,173,180,183,196,209,210,209,207,202,201,198,188,179,169,163,156,148,139,126,117,120,131,143,146,144,141,136,131,126,123,119,116,113,109,110,112,110,106,103,102,99,99,99,98,98,100,98,94,88,85,82,78,70,70,72,74,75,75,76,79,80,82,81,82,82,82,83,81,81,79,78,75,76,78,78,77,76,75,71,69,69,68,67,66,66,66,64,61,59,60,61,60,60,60,59,59,60,61,60,57,57,57,56,57,57,57,58,56,54,52,51,49,48,47,46,46,45,46,47,47,46,46,45,47,45,44,45,44,43,42,41,41,42,44,43,42,43,42,41,41,41,40,43,43,43,42,43,43,43,42,40,39,38,37,35,32,33,33,33,33,34,33,33,34,33,32,31,32,32,36,33,34,32,30,29,29,29,30,32,34,32,30,29,29,29,30,28,27,28,29,29,27,27,30,32,35,40,42,41,38,40,44,51,59,65,70,76,86,95,99,100,103,108,109,109,111,116,125,141,159,184,210,224,225,219,210,204,195,187,175,168,172,177,183,189,188,185,176,168,163,152,146,142,137,129,120,111,104,94,93,101,112,121,126,126,124,120,112,101,91,83,77,69,67,76,84,91,103,114,124,126,123,123,128,132,138,142,142,142,135,129,118,118,128,135,141,141,136,130,128,131,135,129,112,96,89,85,77,69,62,56,47,43,35,24,15,6,4,6,5,5,4,2,0,0,0,0,0,0,0,0,0,0,0,0,0,0,0,0,0,0,0,0,0,0,0,0,0,0,0,0,0,0,0,0,0,0,0,0,0,0,0,0,0,0,0,0,0,0,0,0,0,0,0,0,0,0,0,0,0,0,0,0,0,0,0,0,0,0,0,0,0,0,0,0,0,0,0,0,0,0,0,0,0,0,0,0,0,0,0,0,0,0,0,0,0,0,0,0,0,0,0,0,0,0,0,0,0,0,0,0,0,0,0,0,0,0,0,0,0,0,0,0,0,0,0,0,0,0,0,0,0,0,0,0,0,0,0,0,0,0,0,0,0,0,0,0,0,0,0,0,0,0,0,0,0,0,0,0,0,0,0,0,0,0,0,0,0,0,0,0,0,0,0,0,0,0,0,0,0,0,0,0,0,0,0,0,0,0,0,0,0,0,0,0,0,0,0,0,0,0,0,0,0,0,0,0,0,0,0,0,0,0,0,0,0,0,0,0,0,0,0,0,0,0,0,0,0,0,0,0,0,0,0,0,0,0,0,0,0,0,0,0,0,0,0,0,0,0,0,0,0,0,0,0,0,0,0,0,0,0,0,0,0,0,0,0,0,0,0,0,0,0,0,0,0,0,0,0,0,0,0,0,0,0,0,0,0,0,0,0,0,0,0,0,0,0,0,0,0,0,0,0,0,0,0,0,0,0,0,0,0,0,0,0,0,0,0,0,0,0,0,0,0,0,0,0,0,0,0,0,0,0,0,0,0,0,0,0
