0,0,0,0,0,0,0,0,0,0,0,0,0,0,0,0,0,0,0,0,0,0,0,0,0,0,0,0,0,0,0,0,0,0,0,0,0,0,0,0,0,0,0,0,0,0,0,0,0,0,0,0,0,0,0,0,0,0,0,0,0,0,0,0,0,0,0,0,0,0,0,0,0,0,0,0,0,0,0,0,0,0,0,0,0,0,0,0,0,0,0,0,0,0,0,0,0,0,0,0,0,0,0,0,0,0,0,0,0,0,0,0,0,0,0,0,0,0,0,0,0,0,0,0,0,0,0,0,0,0,0,0,0,0,0,0,0,0,0,0,0,0,0,0,0,0,0,0,0,0,0,0,0,0,0,0,0,0,0,0,0,0,0,0,0,0,0,0,0,0,0,0,0,0,0,0,0,0,0,0,0,0,0,0,0,0,0,0,0,0,0,0,0,0,0,0,0,0,0,0,0,0,0,0,0,0,0,0,0,0,0,0,0,0,0,0,0,0,0,0,0,0,0,0,0,0,0,0,0,0,0,0,0,0,0,0,0,0,0,0,0,0,0,0,0,0,0,0,0,0,0,0,0,0,0,0,0,0,0,0,0,0,0,0,0,0,0,0,0,0,0,0,0,0,0,0,0,0,0,0,0,0,0,0,0,0,0,0,0,0,0,0,0,0,0,0,0,0,0,0,0,0,0,0,0,0,0,0,0,0,0,0,0,0,0,0,0,0,0,0,0,0,0,0,0,0,0,0,0,0,0,0,0,0,0,0,0,0,0,0,0,0,0,0,0,0,0,0,0,0,0,0,0,0,0,0,0,0,0,0,0,0,0,0,0,0,0,0,0,0,0,0,0,0,0,0,0,0,0,0,0,0,0,0,0,0,0,0,0,0,0,0,0,0,0,0,0,0,0,0,0,0,0,0,0,0,0,1,3,6,10,11,13,14,12,11,12,14,17,15,17,17,18,22,20,19,19,19,21,20,21,24,26,27,26,27,27,27,26,24,25,27,28,29,29,29,30,31,31,32,33,33,34,35,35,35,34,34,35,38,37,33,31,24,22,18,13,11,12,11,11,12,11,12,12,12,12,13,20,33,42,49,65,78,77,82,84,78,66,51,52,58,53,43,35,31,29,34,41,41,39,39,43,51,53,59,61,57,56,53,50,41,37,38,38,40,51,63,73,82,91,96,97,96,94,92,94,91,83,81,84,85,94,106,119,133,142,155,168,175,185,185,189,202,215,220,226,227,227,238,251,261,271,282,287,282,272,269,266,260,247,238,241,252,264,278,288,299,311,320,326,333,345,356,362,363,368,374,375,375,376,380,384,391,398,404,412,420,433,449,470,487,500,520,535,521,493,478,476,481,477,465,445,432,439,443,429,410,414,418,427,436,441,440,436,432,422,414,418,445,466,477,482,489,486,483,477,471,463,459,461,468,466,449,443,438,429,418,407,392,371,368,386,411,433,460,480,490,501,505,488,466,445,429,413,393,380,372,366,363,358,350,339,330,320,307,295,288,282,279,282,273,244,232,219,205,206,226,243,258,272,280,287,301,315,328,336,334,325,311,297,283,273,265,254,244,234,224,208,195,201,217,229,245,255,262,264,263,268,277,287,300,310,321,334,346,355,359,361,364,365,356,348,341,342,342,344,349,352,349,351,357,368,378,382,386,396,408,419,434,444,453,462,471,487,500,508,512,517,527,535,545,557,567,564,558,551,544,537,526,519,517,511,506,509,516,525,532,545,552,551,544,533,518,517,519,522,523,504,483,477,478,475,473,471,461,437,414,407,412,411,403,397,394,410,420,402,372,338,318,291,275,264,236,214,203,193,179,165,160,156,150,145,138,130,131,138,143,140,132,122,115,114,110,107,105,103,101,100,98,97,98,107,117,123,127,124,113,102,93,97,98,101,108,119,122,111,99,96,105,115,117,116,121,122,116,109,101,97,94,93,92,99,109,105,97,101,111,125,134,135,143,145,132,120,116,121,132,143,152,160,165,162,163,158,142,135,140,147,157,168,176,183,195,203,210,216,220,219,218,216,207,206,212,224,237,251,263,276,285,293,296,299,295,280,274,284,301,319,335,348,361,371,374,379,382,385,387,390,393,390,379,366,350,330,328,345,341,323,321,334,346,350,357,361,356,339,340,347,349,348,346,335,313,293,294,308,328,337,325,329,341,341,330,315,317,333,337,333,329,323,317,321,313,296,282,273,270,271,268,268,272,278,285,287,275,278,295,308,324,335,337,336,326,312,294,296,306,302,287,273,264,263,273,289,305,320,336,351,363,369,365,358,351,342,329,331,344,349,350,351,350,351,352,349,340,335,335,338
0,0,0,0,0,0,0,0,0,0,0,0,0,0,0,0,0,0,0,0,0,0,0,0,0,0,0,0,0,0,0,0,0,0,0,0,0,0,0,0,0,0,0,0,0,0,0,0,0,0,0,0,0,0,0,0,0,0,0,0,0,0,0,0,0,0,0,0,0,0,0,0,0,0,0,0,0,0,0,0,0,0,0,0,0,0,0,0,0,0,0,0,0,0,0,0,0,0,0,0,0,0,0,0,0,0,0,0,0,0,0,0,0,0,0,0,0,0,0,0,0,0,0,0,0,0,0,0,0,0,0,0,0,0,0,0,0,0,0,0,0,0,0,0,0,0,0,0,0,0,0,0,0,0,0,0,0,0,0,0,0,0,0,0,0,0,0,0,0,0,0,0,0,0,0,0,0,0,0,0,0,0,0,0,0,0,0,0,0,0,0,0,0,0,0,0,0,0,0,0,0,0,0,0,0,0,0,0,0,0,0,0,0,0,0,0,0,0,0,0,0,0,0,0,0,0,0,0,0,0,0,0,0,0,0,0,0,0,0,0,0,0,0,0,0,0,0,0,0,0,0,0,0,0,0,0,0,0,0,0,0,0,0,0,0,0,0,0,0,0,0,0,0,0,0,0,0,0,0,0,0,0,0,0,0,0,0,0,0,0,0,0,0,0,0,0,0,0,0,0,0,0,0,0,0,0,0,0,0,0,0,0,0,0,0,0,0,0,0,0,0,0,0,0,0,0,0,0,0,0,0,0,0,0,0,0,0,0,0,0,0,0,0,0,0,0,0,0,0,0,0,0,0,0,0,0,0,0,0,0,0,0,0,0,0,0,0,0,0,0,0,0,0,0,0,0,0,0,0,0,0,0,0,0,0,0,0,0,0,0,0,0,0,0,0,0,0,0,0,0,0,0,0,0,0,0,0,4,8,10,10,11,11,14,13,13,13,16,16,18,19,18,16,19,20,23,25,24,23,23,25,26,27,27,28,28,28,27,27,27,27,28,31,31,31,32,33,32,32,32,35,36,37,36,37,38,38,39,38,39,39,37,36,33,30,21,15,14,12,10,9,10,11,12,13,13,13,14,18,23,25,27,37,52,50,52,51,53,48,41,49,62,59,49,40,37,28,25,31,34,32,29,33,38,44,54,62,61,58,57,56,51,45,40,40,41,43,46,54,67,76,82,92,100,100,99,101,102,96,92,93,96,100,112,128,138,150,165,183,189,195,202,203,209,216,218,233,250,259,257,253,256,264,276,286,290,290,288,287,277,263,255,253,254,261,272,282,292,303,313,325,336,346,345,343,347,353,353,354,359,367,382,394,404,407,409,419,423,428,433,442,453,473,490,503,508,509,502,494,494,487,477,457,441,444,448,433,421,427,436,443,448,452,446,446,446,442,439,436,448,474,489,498,503,497,497,501,502,497,489,482,473,460,448,438,433,422,415,411,406,391,384,399,414,432,455,475,483,495,501,490,474,455,432,413,401,389,379,380,379,372,362,350,338,321,305,295,290,284,279,280,271,250,243,226,210,214,230,247,261,276,285,299,310,321,336,344,337,324,310,300,291,282,270,258,249,240,230,212,199,204,218,230,241,251,256,259,264,270,279,289,300,313,325,338,350,359,368,374,379,375,367,361,355,354,357,356,361,363,362,366,366,370,380,393,406,414,420,430,443,459,469,472,477,490,509,520,531,535,539,543,552,557,559,558,553,545,538,533,526,516,510,508,507,512,522,538,552,568,579,577,562,538,529,545,560,552,534,508,496,496,499,501,490,465,442,427,420,420,417,407,396,388,386,395,406,400,379,345,316,297,285,265,238,213,204,189,176,165,157,149,145,136,135,140,144,142,135,127,118,114,111,111,110,111,111,111,108,104,101,102,106,118,129,131,129,119,108,97,96,104,108,106,108,116,119,113,102,101,109,119,128,123,119,116,105,99,95,94,93,92,94,103,115,114,103,101,113,126,138,141,147,151,149,140,128,118,121,133,143,155,166,167,169,167,152,142,139,142,150,160,168,180,192,201,211,221,232,233,236,240,237,233,228,230,231,240,257,274,284,295,303,310,316,307,291,287,295,307,325,344,360,374,383,392,400,407,410,409,413,410,396,383,360,344,348,364,360,348,338,343,358,369,376,379,367,349,357,366,367,364,356,343,318,311,319,321,335,345,346,353,365,367,353,339,340,348,344,333,324,314,305,303,297,282,268,254,252,258,255,257,262,267,273,272,261,269,276,289,303,308,315,321,314,302,282,278,288,293,277,262,261,270,284,295,309,329,344,360,369,376,375,365,355,346,338,345,357,369,368,362,361,367,371,371,361,354,349,344
0,0,0,0,0,0,0,0,0,0,0,0,0,0,0,0,0,0,0,0,0,0,0,0,0,0,0,0,0,0,0,0,0,0,0,0,0,0,0,0,0,0,0,0,0,0,0,0,0,0,0,0,0,0,0,0,0,0,0,0,0,0,0,0,0,0,0,0,0,0,0,0,0,0,0,0,0,0,0,0,0,0,0,0,0,0,0,0,0,0,0,0,0,0,0,0,0,0,0,0,0,0,0,0,0,0,0,0,0,0,0,0,0,0,0,0,0,0,0,0,0,0,0,0,0,0,0,0,0,0,0,0,0,0,0,0,0,0,0,0,0,0,0,0,0,0,0,0,0,0,0,0,0,0,0,0,0,0,0,0,0,0,0,0,0,0,0,0,0,0,0,0,0,0,0,0,0,0,0,0,0,0,0,0,0,0,0,0,0,0,0,0,0,0,0,0,0,0,0,0,0,0,0,0,0,0,0,0,0,0,0,0,0,0,0,0,0,0,0,0,0,0,0,0,0,0,0,0,0,0,0,0,0,0,0,0,0,0,0,0,0,0,0,0,0,0,0,0,0,0,0,0,0,0,0,0,0,0,0,0,0,0,0,0,0,0,0,0,0,0,0,0,0,0,0,0,0,0,0,0,0,0,0,0,0,0,0,0,0,0,0,0,0,0,0,0,0,0,0,0,0,0,0,0,0,0,0,0,0,0,0,0,0,0,0,0,0,0,0,0,0,0,0,0,0,0,0,0,0,0,0,0,0,0,0,0,0,0,0,0,0,0,0,0,0,0,0,0,0,0,0,0,0,0,0,0,0,0,0,0,0,0,0,0,0,0,0,0,0,0,0,0,0,0,0,0,0,0,0,0,0,0,0,0,0,0,0,0,0,0,0,0,0,0,0,0,0,0,0,0,0,0,0,0,0,0,2,8,9,8,8,10,12,15,12,13,16,18,19,18,18,20,20,22,23,24,26,28,29,28,26,27,30,30,30,31,29,27,28,29,29,28,32,33,35,36,34,34,35,36,37,37,38,39,39,39,40,40,40,41,39,39,40,40,36,20,13,13,11,12,11,11,10,11,12,13,13,13,14,15,14,17,19,23,27,28,30,30,32,40,54,59,49,42,38,34,28,24,24,24,25,25,29,36,50,57,61,64,62,60,59,58,57,50,45,44,44,43,44,49,56,62,73,83,84,84,94,102,99,96,98,101,108,124,138,150,166,178,187,198,206,211,213,217,222,227,236,252,267,265,260,264,268,272,278,282,283,289,294,290,277,270,271,272,274,279,287,295,303,311,320,329,330,325,324,332,339,343,352,362,375,391,407,425,421,423,431,436,446,449,449,447,456,474,488,501,517,529,522,505,492,481,468,457,453,450,443,436,441,451,459,462,465,461,461,464,466,462,456,455,482,499,514,517,513,523,534,536,528,519,509,494,469,454,443,434,426,426,424,418,414,407,411,426,437,448,465,477,487,492,483,472,457,436,419,410,406,396,393,391,389,383,370,354,332,317,309,301,293,288,285,275,261,246,228,215,220,237,253,270,284,296,308,321,335,347,353,344,331,320,309,300,290,279,269,264,253,235,216,206,208,208,217,226,236,245,253,263,271,279,289,301,312,324,337,350,363,374,383,391,391,382,376,369,363,367,366,373,375,375,383,380,378,386,401,415,429,440,453,462,472,485,493,496,503,515,528,539,551,556,551,551,552,549,544,537,531,525,523,517,510,503,496,498,509,526,548,569,586,604,599,573,550,549,559,566,547,525,510,512,516,515,501,474,456,454,454,457,450,429,402,384,373,366,367,370,377,377,354,323,304,290,264,237,211,201,196,183,176,170,160,153,145,147,154,150,137,123,116,117,120,122,124,125,122,116,108,104,102,102,113,123,127,129,122,114,109,99,98,100,107,114,121,122,121,124,118,107,102,109,118,124,120,109,101,97,96,97,105,104,96,95,107,119,120,108,102,113,126,133,140,142,147,154,154,142,130,122,128,143,158,170,175,175,174,162,148,143,143,146,153,163,174,186,196,206,213,223,233,239,249,256,257,258,258,248,246,262,279,293,300,306,314,326,322,308,310,317,315,323,336,350,364,384,401,413,418,425,431,429,425,413,398,376,360,364,382,387,370,357,361,373,387,392,386,371,365,378,384,382,374,362,348,330,334,345,347,351,357,364,376,394,396,371,351,341,336,329,324,318,302,287,276,270,263,251,240,242,245,246,251,254,250,247,247,247,250,256,270,279,286,299,307,300,288,272,263,276,281,269,261,266,279,292,301,314,335,352,363,372,379,380,371,361,353,350,355,365,375,378,377,377,385,392,388,383,376,365,356
0,0,0,0,0,0,0,0,0,0,0,0,0,0,0,0,0,0,0,0,0,0,0,0,0,0,0,0,0,0,0,0,0,0,0,0,0,0,0,0,0,0,0,0,0,0,0,0,0,0,0,0,0,0,0,0,0,0,0,0,0,0,0,0,0,0,0,0,0,0,0,0,0,0,0,0,0,0,0,0,0,0,0,0,0,0,0,0,0,0,0,0,0,0,0,0,0,0,0,0,0,0,0,0,0,0,0,0,0,0,0,0,0,0,0,0,0,0,0,0,0,0,0,0,0,0,0,0,0,0,0,0,0,0,0,0,0,0,0,0,0,0,0,0,0,0,0,0,0,0,0,0,0,0,0,0,0,0,0,0,0,0,0,0,0,0,0,0,0,0,0,0,0,0,0,0,0,0,0,0,0,0,0,0,0,0,0,0,0,0,0,0,0,0,0,0,0,0,0,0,0,0,0,0,0,0,0,0,0,0,0,0,0,0,0,0,0,0,0,0,0,0,0,0,0,0,0,0,0,0,0,0,0,0,0,0,0,0,0,0,0,0,0,0,0,0,0,0,0,0,0,0,0,0,0,0,0,0,0,0,0,0,0,0,0,0,0,0,0,0,0,0,0,0,0,0,0,0,0,0,0,0,0,0,0,0,0,0,0,0,0,0,0,0,0,0,0,0,0,0,0,0,0,0,0,0,0,0,0,0,0,0,0,0,0,0,0,0,0,0,0,0,0,0,0,0,0,0,0,0,0,0,0,0,0,0,0,0,0,0,0,0,0,0,0,0,0,0,0,0,0,0,0,0,0,0,0,0,0,0,0,0,0,0,0,0,0,0,0,0,0,0,0,0,0,0,0,0,0,0,0,0,0,0,0,0,0,0,0,0,0,0,0,0,0,0,0,0,0,0,0,0,0,0,0,0,2,8,7,7,10,11,12,13,14,16,18,17,18,19,18,23,23,24,24,25,25,25,26,29,28,29,31,31,32,33,32,31,31,33,33,33,35,36,36,37,37,36,37,40,38,39,41,43,46,45,44,42,43,44,45,44,45,44,39,29,21,13,13,13,13,13,13,13,13,12,13,14,14,17,16,15,15,17,17,21,26,26,28,37,49,43,35,32,32,24,23,24,23,22,24,25,27,30,37,43,51,56,59,62,63,59,57,59,58,54,48,46,45,47,49,51,57,63,64,68,78,86,86,83,86,92,101,122,139,156,182,199,203,209,215,219,222,228,230,236,250,253,249,244,241,251,260,260,260,264,270,277,288,297,295,293,295,295,296,298,300,308,318,320,317,310,309,308,313,324,338,347,359,370,383,403,425,441,437,437,443,446,462,474,473,462,457,464,478,501,522,534,530,512,496,482,475,468,467,464,459,460,461,469,474,476,474,471,475,482,488,479,472,464,481,499,512,525,525,533,549,552,545,544,541,521,493,473,463,453,445,443,439,448,453,444,435,445,449,455,468,484,493,481,473,468,448,431,421,419,417,415,413,416,407,393,377,359,338,326,316,306,303,300,291,275,260,250,240,226,225,243,259,276,290,304,317,331,347,361,366,361,346,334,323,312,305,296,285,272,255,238,220,215,221,214,222,233,238,247,255,264,272,278,286,301,315,329,343,354,367,378,387,395,399,394,393,384,374,371,374,383,385,386,390,391,392,397,409,422,432,445,461,477,487,498,508,518,524,526,532,543,555,560,554,548,544,537,527,522,518,513,508,500,494,489,487,493,504,520,538,559,576,589,594,587,574,566,554,545,534,525,522,529,544,537,518,503,500,506,505,496,474,444,414,384,366,352,349,344,349,360,352,323,297,277,256,233,215,211,206,196,186,176,164,157,156,159,157,146,129,120,122,130,137,139,133,124,113,108,108,110,104,102,113,123,131,129,118,106,102,99,102,111,110,113,123,131,133,130,123,109,103,110,118,122,122,111,99,96,102,113,119,109,100,97,106,115,122,113,103,111,117,120,124,131,138,148,157,155,144,128,131,148,161,172,182,183,180,170,156,148,147,149,157,167,177,184,191,201,212,220,226,233,242,251,260,268,273,271,268,274,279,294,309,319,325,334,333,329,343,348,340,342,358,366,374,391,404,415,427,434,442,442,435,423,412,392,380,385,399,406,395,388,390,393,406,409,403,395,389,395,403,398,387,375,361,348,355,371,375,375,378,381,384,388,383,362,342,333,325,316,312,302,289,272,257,247,237,230,229,232,231,236,243,243,242,239,240,240,241,241,247,254,265,283,289,278,267,256,249,255,258,259,261,272,285,303,316,323,334,344,351,362,372,381,379,372,368,364,361,369,381,388,389,393,401,412,412,398,384,370,359
0,0,0,0,0,0,0,0,0,0,0,0,0,0,0,0,0,0,0,0,0,0,0,0,0,0,0,0,0,0,0,0,0,0,0,0,0,0,0,0,0,0,0,0,0,0,0,0,0,0,0,0,0,0,0,0,0,0,0,0,0,0,0,0,0,0,0,0,0,0,0,0,0,0,0,0,0,0,0,0,0,0,0,0,0,0,0,0,0,0,0,0,0,0,0,0,0,0,0,0,0,0,0,0,0,0,0,0,0,0,0,0,0,0,0,0,0,0,0,0,0,0,0,0,0,0,0,0,0,0,0,0,0,0,0,0,0,0,0,0,0,0,0,0,0,0,0,0,0,0,0,0,0,0,0,0,0,0,0,0,0,0,0,0,0,0,0,0,0,0,0,0,0,0,0,0,0,0,0,0,0,0,0,0,0,0,0,0,0,0,0,0,0,0,0,0,0,0,0,0,0,0,0,0,0,0,0,0,0,0,0,0,0,0,0,0,0,0,0,0,0,0,0,0,0,0,0,0,0,0,0,0,0,0,0,0,0,0,0,0,0,0,0,0,0,0,0,0,0,0,0,0,0,0,0,0,0,0,0,0,0,0,0,0,0,0,0,0,0,0,0,0,0,0,0,0,0,0,0,0,0,0,0,0,0,0,0,0,0,0,0,0,0,0,0,0,0,0,0,0,0,0,0,0,0,0,0,0,0,0,0,0,0,0,0,0,0,0,0,0,0,0,0,0,0,0,0,0,0,0,0,0,0,0,0,0,0,0,0,0,0,0,0,0,0,0,0,0,0,0,0,0,0,0,0,0,0,0,0,0,0,0,0,0,0,0,0,0,0,0,0,0,0,0,0,0,0,0,0,0,0,0,0,0,0,0,0,0,0,0,0,0,0,0,0,0,0,0,0,0,0,0,0,0,0,2,6,8,8,6,8,10,10,10,12,14,15,18,20,20,20,22,23,24,25,26,27,28,29,29,29,30,32,34,35,37,35,36,35,36,39,40,41,38,38,36,40,41,40,42,43,43,44,44,46,49,49,48,48,47,48,48,50,50,52,47,38,27,19,19,18,18,17,16,17,16,14,15,17,20,21,17,14,14,17,20,21,22,23,22,24,24,22,21,21,20,22,22,22,23,24,23,27,30,33,37,44,49,54,62,62,58,55,54,56,60,59,52,50,50,48,48,50,53,54,59,62,68,68,69,73,79,90,101,115,136,161,180,189,200,214,227,234,237,236,229,229,226,224,225,226,235,243,239,238,243,255,266,280,291,301,308,313,314,309,303,299,304,310,311,297,288,294,302,311,323,336,350,356,369,385,406,423,433,440,447,450,457,477,494,493,482,479,477,475,492,511,523,521,510,498,489,485,484,484,479,479,478,480,485,493,493,491,490,491,499,504,498,492,479,492,511,522,527,536,543,553,566,568,562,545,531,514,493,483,471,463,461,467,481,486,484,482,483,471,472,485,490,496,488,475,459,444,435,435,432,433,433,428,421,406,391,378,361,344,331,323,319,314,308,297,281,269,260,247,232,232,255,272,285,296,310,325,343,358,373,379,370,359,346,332,321,310,297,284,270,255,237,219,217,223,222,227,238,246,255,262,273,280,284,291,302,317,333,346,357,370,384,392,402,412,415,410,396,384,379,383,391,391,394,396,399,402,406,415,427,439,451,466,479,497,514,524,531,533,538,545,553,563,566,557,545,532,521,514,507,500,496,498,495,485,477,478,484,493,503,519,534,546,553,563,574,576,564,543,522,517,518,519,534,560,571,555,539,527,516,514,508,491,465,437,400,372,350,336,332,328,331,332,316,300,281,258,234,220,213,209,199,189,179,168,164,159,155,148,131,122,125,134,143,144,136,126,115,108,117,124,119,109,108,119,129,132,129,119,112,106,101,103,110,119,124,130,136,136,127,117,107,106,114,125,129,124,112,101,98,104,115,125,120,109,99,101,112,122,117,107,109,111,112,115,121,132,142,153,160,153,135,133,148,160,171,176,181,181,176,168,158,149,151,160,172,184,195,204,213,220,229,234,240,247,255,264,272,280,287,293,302,303,306,314,328,338,347,351,352,364,372,369,370,381,389,397,405,416,428,435,440,447,449,447,440,430,417,401,402,413,422,427,423,422,423,429,432,426,420,413,412,418,412,403,393,382,371,374,389,399,400,397,391,377,368,357,345,334,323,311,303,295,283,271,253,241,231,227,224,229,235,240,245,250,246,245,247,250,251,250,249,242,242,247,258,262,257,251,248,252,262,269,267,259,264,276,294,306,314,323,335,346,355,368,379,387,388,386,379,374,377,386,396,401,406,416,418,414,403,389,377,368
0,0,0,0,0,0,0,0,0,0,0,0,0,0,0,0,0,0,0,0,0,0,0,0,0,0,0,0,0,0,0,0,0,0,0,0,0,0,0,0,0,0,0,0,0,0,0,0,0,0,0,0,0,0,0,0,0,0,0,0,0,0,0,0,0,0,0,0,0,0,0,0,0,0,0,0,0,0,0,0,0,0,0,0,0,0,0,0,0,0,0,0,0,0,0,0,0,0,0,0,0,0,0,0,0,0,0,0,0,0,0,0,0,0,0,0,0,0,0,0,0,0,0,0,0,0,0,0,0,0,0,0,0,0,0,0,0,0,0,0,0,0,0,0,0,0,0,0,0,0,0,0,0,0,0,0,0,0,0,0,0,0,0,0,0,0,0,0,0,0,0,0,0,0,0,0,0,0,0,0,0,0,0,0,0,0,0,0,0,0,0,0,0,0,0,0,0,0,0,0,0,0,0,0,0,0,0,0,0,0,0,0,0,0,0,0,0,0,0,0,0,0,0,0,0,0,0,0,0,0,0,0,0,0,0,0,0,0,0,0,0,0,0,0,0,0,0,0,0,0,0,0,0,0,0,0,0,0,0,0,0,0,0,0,0,0,0,0,0,0,0,0,0,0,0,0,0,0,0,0,0,0,0,0,0,0,0,0,0,0,0,0,0,0,0,0,0,0,0,0,0,0,0,0,0,0,0,0,0,0,0,0,0,0,0,0,0,0,0,0,0,0,0,0,0,0,0,0,0,0,0,0,0,0,0,0,0,0,0,0,0,0,0,0,0,0,0,0,0,0,0,0,0,0,0,0,0,0,0,0,0,0,0,0,0,0,0,0,0,0,0,0,0,0,0,0,0,0,0,0,0,0,0,0,0,0,0,0,0,0,0,0,0,0,0,0,0,0,0,0,0,0,0,0,0,2,5,7,9,9,10,12,12,12,12,12,17,20,21,22,23,23,24,25,25,27,27,28,30,30,30,34,34,34,35,36,37,39,40,40,42,42,43,45,45,41,43,44,44,46,47,48,50,51,50,51,52,51,50,52,52,52,54,54,56,57,55,48,38,31,27,22,20,25,30,25,21,19,26,31,34,29,18,15,16,19,17,18,19,18,17,18,19,18,20,20,21,21,22,24,26,26,29,29,30,35,39,45,52,58,59,56,50,47,49,51,55,56,62,63,57,52,53,51,53,55,56,62,67,75,83,92,97,98,103,110,123,136,153,171,189,201,206,205,201,202,202,203,210,212,216,219,222,221,225,235,249,265,277,288,296,302,307,305,293,280,276,280,282,281,273,285,302,317,326,332,342,351,359,370,384,398,411,421,429,445,458,472,484,493,498,497,495,496,494,490,499,511,520,513,507,504,505,503,499,494,493,497,498,503,507,510,510,509,506,510,512,513,506,495,499,518,533,537,542,551,557,571,581,578,567,557,534,510,497,488,480,484,495,506,514,514,512,507,493,489,500,499,493,491,477,462,455,449,449,451,448,440,428,416,400,386,375,364,354,342,334,328,324,316,302,288,276,268,256,241,239,268,295,305,312,321,336,351,365,377,378,373,363,351,336,324,312,296,281,266,254,234,221,222,228,235,235,240,246,257,270,281,288,293,301,314,327,338,348,360,375,390,400,411,420,427,418,403,396,395,395,397,402,406,408,408,414,416,424,438,447,461,472,478,491,511,528,539,545,550,561,577,584,580,571,554,535,517,507,497,487,479,479,483,479,468,468,476,484,492,504,515,524,531,536,540,554,555,529,510,502,499,502,521,546,567,554,528,504,486,474,464,463,455,435,399,362,339,324,315,309,302,295,286,275,258,240,222,214,208,203,194,188,177,163,154,147,140,130,126,131,138,146,143,134,123,116,110,113,127,132,122,112,120,132,140,140,136,124,116,107,105,107,106,112,122,132,139,136,123,113,108,109,118,127,135,131,118,105,99,102,110,121,126,115,105,104,117,126,121,113,122,131,128,119,117,124,135,146,158,158,145,134,141,151,159,166,173,177,180,176,162,153,155,161,172,186,199,207,216,227,235,242,247,256,264,272,279,288,298,308,318,327,335,339,344,350,360,368,374,382,388,395,394,394,399,406,417,426,433,442,450,460,468,461,456,450,443,428,422,430,438,445,449,444,440,444,450,449,444,439,439,440,433,424,414,402,396,399,406,409,410,404,394,380,368,354,336,328,314,297,286,277,267,256,242,229,220,221,227,240,248,261,265,264,260,262,268,275,274,269,266,258,248,241,241,246,249,256,268,277,288,295,292,278,268,266,275,290,306,322,335,349,364,373,382,387,394,393,390,389,388,393,400,400,402,406,413,418,413,406,396,385
0,0,0,0,0,0,0,0,0,0,0,0,0,0,0,0,0,0,0,0,0,0,0,0,0,0,0,0,0,0,0,0,0,0,0,0,0,0,0,0,0,0,0,0,0,0,0,0,0,0,0,0,0,0,0,0,0,0,0,0,0,0,0,0,0,0,0,0,0,0,0,0,0,0,0,0,0,0,0,0,0,0,0,0,0,0,0,0,0,0,0,0,0,0,0,0,0,0,0,0,0,0,0,0,0,0,0,0,0,0,0,0,0,0,0,0,0,0,0,0,0,0,0,0,0,0,0,0,0,0,0,0,0,0,0,0,0,0,0,0,0,0,0,0,0,0,0,0,0,0,0,0,0,0,0,0,0,0,0,0,0,0,0,0,0,0,0,0,0,0,0,0,0,0,0,0,0,0,0,0,0,0,0,0,0,0,0,0,0,0,0,0,0,0,0,0,0,0,0,0,0,0,0,0,0,0,0,0,0,0,0,0,0,0,0,0,0,0,0,0,0,0,0,0,0,0,0,0,0,0,0,0,0,0,0,0,0,0,0,0,0,0,0,0,0,0,0,0,0,0,0,0,0,0,0,0,0,0,0,0,0,0,0,0,0,0,0,0,0,0,0,0,0,0,0,0,0,0,0,0,0,0,0,0,0,0,0,0,0,0,0,0,0,0,0,0,0,0,0,0,0,0,0,0,0,0,0,0,0,0,0,0,0,0,0,0,0,0,0,0,0,0,0,0,0,0,0,0,0,0,0,0,0,0,0,0,0,0,0,0,0,0,0,0,0,0,0,0,0,0,0,0,0,0,0,0,0,0,0,0,0,0,0,0,0,0,0,0,0,0,0,0,0,0,0,0,0,0,0,0,0,0,0,0,0,0,0,0,0,0,0,0,0,0,0,0,0,0,0,0,0,0,0,0,0,3,3,7,10,11,12,11,11,13,15,16,19,19,21,23,24,24,25,26,26,27,29,30,29,32,33,38,38,39,39,39,41,41,41,43,48,47,48,49,47,46,46,47,46,47,49,52,52,54,55,52,55,54,55,56,53,55,57,57,58,60,62,56,49,40,31,27,28,35,37,36,30,28,36,45,47,44,30,16,15,16,16,17,18,20,18,18,20,21,20,21,22,22,22,23,26,32,38,40,40,37,36,36,41,49,57,58,50,43,46,53,56,57,60,66,69,70,67,56,54,56,61,71,81,92,104,116,125,126,128,131,124,122,136,147,153,157,166,173,174,180,185,186,187,192,200,204,212,215,226,239,253,263,271,279,285,290,292,281,269,254,250,253,258,263,268,285,299,313,327,336,347,356,363,374,381,390,402,413,423,435,450,464,476,488,496,505,514,518,518,506,508,521,532,526,520,522,528,528,524,514,512,515,519,524,524,523,522,521,525,531,528,528,521,519,525,521,524,535,542,548,552,563,576,588,589,575,555,535,514,502,497,505,516,524,532,533,529,523,513,509,505,500,498,495,480,471,468,466,469,468,458,448,435,420,403,387,376,368,357,346,340,334,326,317,306,290,280,272,263,249,249,273,297,315,328,340,351,358,365,372,374,370,365,355,339,324,313,301,287,271,256,235,229,235,240,247,249,250,251,261,276,288,298,304,313,322,333,345,357,363,374,388,404,418,425,431,424,419,413,412,409,404,411,416,418,420,426,432,433,441,454,469,481,484,492,507,521,534,543,553,567,584,591,587,574,554,534,519,511,499,487,472,463,466,468,459,457,466,475,487,496,501,500,506,513,529,549,551,528,504,494,487,489,507,529,548,547,523,497,468,446,427,412,414,417,387,353,327,314,304,296,289,281,270,256,241,230,218,207,198,189,180,173,163,152,141,135,132,129,133,147,151,142,132,124,117,119,118,118,131,138,128,119,127,138,138,134,127,119,111,108,112,119,115,110,113,123,134,138,132,122,111,113,126,137,144,137,125,110,101,101,108,118,124,120,108,107,116,124,119,119,133,142,146,135,121,120,133,143,156,164,160,150,145,143,148,155,159,168,177,175,165,157,158,167,182,192,201,209,219,230,237,246,254,261,270,280,287,297,308,317,326,340,350,356,360,365,373,382,388,395,402,411,415,415,421,425,429,432,440,448,458,462,471,475,479,477,470,455,448,447,449,452,459,462,462,462,464,467,467,465,467,468,463,447,435,423,416,409,405,402,397,394,389,377,366,352,335,317,303,284,270,261,254,243,227,218,216,228,239,255,267,269,277,280,278,280,287,292,290,286,288,284,271,259,252,254,268,280,294,307,314,320,316,303,288,279,273,277,289,300,318,342,357,366,376,380,384,383,382,385,392,397,401,398,393,393,401,409,415,416,410,401
0,0,0,0,0,0,0,0,0,0,0,0,0,0,0,0,0,0,0,0,0,0,0,0,0,0,0,0,0,0,0,0,0,0,0,0,0,0,0,0,0,0,0,0,0,0,0,0,0,0,0,0,0,0,0,0,0,0,0,0,0,0,0,0,0,0,0,0,0,0,0,0,0,0,0,0,0,0,0,0,0,0,0,0,0,0,0,0,0,0,0,0,0,0,0,0,0,0,0,0,0,0,0,0,0,0,0,0,0,0,0,0,0,0,0,0,0,0,0,0,0,0,0,0,0,0,0,0,0,0,0,0,0,0,0,0,0,0,0,0,0,0,0,0,0,0,0,0,0,0,0,0,0,0,0,0,0,0,0,0,0,0,0,0,0,0,0,0,0,0,0,0,0,0,0,0,0,0,0,0,0,0,0,0,0,0,0,0,0,0,0,0,0,0,0,0,0,0,0,0,0,0,0,0,0,0,0,0,0,0,0,0,0,0,0,0,0,0,0,0,0,0,0,0,0,0,0,0,0,0,0,0,0,0,0,0,0,0,0,0,0,0,0,0,0,0,0,0,0,0,0,0,0,0,0,0,0,0,0,0,0,0,0,0,0,0,0,0,0,0,0,0,0,0,0,0,0,0,0,0,0,0,0,0,0,0,0,0,0,0,0,0,0,0,0,0,0,0,0,0,0,0,0,0,0,0,0,0,0,0,0,0,0,0,0,0,0,0,0,0,0,0,0,0,0,0,0,0,0,0,0,0,0,0,0,0,0,0,0,0,0,0,0,0,0,0,0,0,0,0,0,0,0,0,0,0,0,0,0,0,0,0,0,0,0,0,0,0,0,0,0,0,0,0,0,0,0,0,0,0,0,0,0,0,0,0,0,0,0,0,0,0,0,0,0,0,0,0,0,0,0,0,0,0,2,4,4,6,11,12,12,11,13,14,15,19,21,21,21,22,23,25,27,28,29,29,31,32,32,34,36,36,38,40,43,43,45,45,44,44,48,49,51,52,51,51,50,49,49,50,48,51,54,57,58,59,58,56,58,60,59,61,63,62,63,63,62,60,53,41,41,40,43,48,48,48,44,44,49,51,52,49,38,19,14,15,15,16,18,21,21,22,19,19,21,20,21,22,23,24,25,27,32,38,41,41,41,42,43,48,55,54,48,42,45,58,66,65,63,65,70,72,70,61,54,56,59,70,83,97,108,124,137,145,153,151,140,134,137,142,149,156,159,161,166,171,176,183,193,203,211,220,229,234,239,245,251,258,261,265,272,280,271,258,249,235,232,237,244,256,268,282,291,302,311,321,335,345,354,366,374,385,398,410,422,432,445,456,472,485,500,518,538,545,533,518,522,535,539,538,538,543,553,553,545,539,537,532,535,538,540,536,535,535,542,545,541,543,539,541,548,537,528,531,537,546,551,563,577,590,595,592,579,550,524,515,511,516,527,536,536,534,532,528,522,511,501,497,495,491,479,473,464,463,473,472,459,443,432,419,404,389,378,367,359,349,342,334,324,316,305,293,283,273,264,259,267,281,301,321,333,345,358,368,377,381,379,369,360,350,336,322,311,300,283,268,255,241,240,245,251,255,258,261,265,269,277,290,301,312,320,325,334,346,357,366,382,398,416,424,431,439,440,435,431,429,422,418,420,427,431,433,439,440,444,450,457,474,494,501,504,512,520,530,540,552,564,572,579,579,559,543,531,519,510,498,487,472,459,448,448,444,447,458,470,477,479,483,487,499,519,537,549,547,528,502,488,480,478,483,498,514,515,495,475,460,447,429,405,380,377,363,335,314,303,300,292,276,265,254,244,235,224,215,206,195,183,169,159,151,142,136,134,137,136,143,156,150,137,124,119,125,131,123,126,136,144,131,126,131,134,129,123,119,113,110,119,125,129,130,120,115,119,127,136,135,122,115,118,129,143,146,135,120,106,101,108,120,129,131,124,112,109,112,117,121,121,131,140,148,145,129,123,131,144,156,164,170,172,168,162,158,155,161,173,178,174,166,160,162,172,182,191,202,211,223,230,236,247,254,259,267,279,287,297,308,317,332,343,352,361,367,374,383,392,398,403,410,419,429,441,448,454,456,457,460,464,469,475,488,497,499,497,490,485,483,480,475,468,469,475,478,481,487,492,492,494,488,486,480,463,443,423,411,401,392,384,378,380,382,372,358,347,332,316,294,274,258,248,239,228,218,220,231,245,256,276,284,290,294,297,299,303,311,313,308,304,304,300,288,276,264,265,278,295,308,322,332,337,330,313,296,288,278,274,280,294,314,337,351,364,372,373,371,369,369,376,383,387,388,393,388,380,384,393,401,411,416,412
0,0,0,0,0,0,0,0,0,0,0,0,0,0,0,0,0,0,0,0,0,0,0,0,0,0,0,0,0,0,0,0,0,0,0,0,0,0,0,0,0,0,0,0,0,0,0,0,0,0,0,0,0,0,0,0,0,0,0,0,0,0,0,0,0,0,0,0,0,0,0,0,0,0,0,0,0,0,0,0,0,0,0,0,0,0,0,0,0,0,0,0,0,0,0,0,0,0,0,0,0,0,0,0,0,0,0,0,0,0,0,0,0,0,0,0,0,0,0,0,0,0,0,0,0,0,0,0,0,0,0,0,0,0,0,0,0,0,0,0,0,0,0,0,0,0,0,0,0,0,0,0,0,0,0,0,0,0,0,0,0,0,0,0,0,0,0,0,0,0,0,0,0,0,0,0,0,0,0,0,0,0,0,0,0,0,0,0,0,0,0,0,0,0,0,0,0,0,0,0,0,0,0,0,0,0,0,0,0,0,0,0,0,0,0,0,0,0,0,0,0,0,0,0,0,0,0,0,0,0,0,0,0,0,0,0,0,0,0,0,0,0,0,0,0,0,0,0,0,0,0,0,0,0,0,0,0,0,0,0,0,0,0,0,0,0,0,0,0,0,0,0,0,0,0,0,0,0,0,0,0,0,0,0,0,0,0,0,0,0,0,0,0,0,0,0,0,0,0,0,0,0,0,0,0,0,0,0,0,0,0,0,0,0,0,0,0,0,0,0,0,0,0,0,0,0,0,0,0,0,0,0,0,0,0,0,0,0,0,0,0,0,0,0,0,0,0,0,0,0,0,0,0,0,0,0,0,0,0,0,0,0,0,0,0,0,0,0,0,0,0,0,0,0,0,0,0,0,0,0,0,0,0,0,0,0,0,0,0,0,0,0,0,0,0,0,0,0,0,0,0,0,0,1,3,8,8,7,8,10,12,12,14,15,16,18,20,24,26,25,26,27,27,32,35,33,35,36,35,37,36,36,37,40,43,47,49,49,49,47,49,50,51,54,53,52,52,53,53,55,55,58,57,59,60,61,63,63,62,64,64,65,67,67,68,67,64,56,51,51,53,52,60,62,59,58,60,62,61,55,53,47,36,21,13,17,16,16,20,22,27,26,24,24,26,24,22,21,22,23,23,26,28,28,30,33,39,46,51,52,47,44,40,37,41,51,59,57,61,63,69,72,70,64,58,57,59,66,79,94,106,118,125,137,154,166,160,154,155,161,169,179,180,176,180,190,199,207,212,223,228,232,238,243,249,249,250,248,249,258,266,273,261,246,232,222,230,244,251,257,266,273,282,296,304,314,325,338,351,362,373,387,399,411,422,436,449,462,475,493,511,534,557,565,547,535,542,550,551,552,553,562,572,566,562,563,556,554,562,567,565,562,559,564,568,561,556,553,553,555,553,545,537,535,532,537,546,562,581,592,589,581,571,552,534,532,532,533,537,537,533,522,515,513,506,497,496,506,507,495,473,457,448,446,452,450,441,431,427,424,412,397,386,374,360,353,346,337,328,321,311,298,285,275,279,282,288,295,307,326,347,357,365,376,386,389,387,378,363,352,339,326,316,303,290,275,259,247,248,256,261,265,270,275,278,286,284,284,289,299,312,325,339,350,360,372,385,398,411,421,434,452,465,463,455,445,435,427,431,439,444,447,449,450,457,462,468,485,505,515,522,526,531,540,548,564,573,562,554,548,538,530,521,512,501,488,478,471,458,442,431,428,435,443,446,448,454,466,485,502,515,533,550,551,530,507,488,472,466,465,466,476,485,483,471,450,442,429,400,371,349,332,316,305,294,288,279,270,254,234,224,224,216,208,199,189,178,168,157,148,143,138,144,155,153,152,158,149,134,124,123,137,140,128,135,145,142,135,136,138,132,126,124,121,116,117,129,138,146,146,135,122,121,128,136,139,127,116,120,133,143,148,140,124,106,102,112,123,135,140,130,120,120,116,116,126,132,131,131,140,140,126,124,135,148,154,158,168,178,178,179,177,171,169,178,186,186,176,166,170,176,182,189,196,205,214,222,231,240,248,256,264,273,284,297,305,314,328,338,344,351,360,366,376,386,394,401,410,422,438,452,460,467,472,480,486,490,495,503,510,515,517,518,514,507,501,501,500,494,492,490,495,500,508,518,520,516,507,492,479,462,439,416,406,396,381,369,361,361,359,352,342,329,317,307,280,261,246,235,228,221,220,226,242,258,272,291,296,311,316,314,317,324,336,338,329,323,315,303,289,276,277,282,287,299,315,328,338,341,331,316,304,296,292,287,282,286,305,320,341,358,365,362,359,352,356,368,370,370,375,382,383,374,373,382,393,401,409,414
0,0,0,0,0,0,0,0,0,0,0,0,0,0,0,0,0,0,0,0,0,0,0,0,0,0,0,0,0,0,0,0,0,0,0,0,0,0,0,0,0,0,0,0,0,0,0,0,0,0,0,0,0,0,0,0,0,0,0,0,0,0,0,0,0,0,0,0,0,0,0,0,0,0,0,0,0,0,0,0,0,0,0,0,0,0,0,0,0,0,0,0,0,0,0,0,0,0,0,0,0,0,0,0,0,0,0,0,0,0,0,0,0,0,0,0,0,0,0,0,0,0,0,0,0,0,0,0,0,0,0,0,0,0,0,0,0,0,0,0,0,0,0,0,0,0,0,0,0,0,0,0,0,0,0,0,0,0,0,0,0,0,0,0,0,0,0,0,0,0,0,0,0,0,0,0,0,0,0,0,0,0,0,0,0,0,0,0,0,0,0,0,0,0,0,0,0,0,0,0,0,0,0,0,0,0,0,0,0,0,0,0,0,0,0,0,0,0,0,0,0,0,0,0,0,0,0,0,0,0,0,0,0,0,0,0,0,0,0,0,0,0,0,0,0,0,0,0,0,0,0,0,0,0,0,0,0,0,0,0,0,0,0,0,0,0,0,0,0,0,0,0,0,0,0,0,0,0,0,0,0,0,0,0,0,0,0,0,0,0,0,0,0,0,0,0,0,0,0,0,0,0,0,0,0,0,0,0,0,0,0,0,0,0,0,0,0,0,0,0,0,0,0,0,0,0,0,0,0,0,0,0,0,0,0,0,0,0,0,0,0,0,0,0,0,0,0,0,0,0,0,0,0,0,0,0,0,0,0,0,0,0,0,0,0,0,0,0,0,0,0,0,0,0,0,0,0,0,0,0,0,0,0,0,0,0,0,0,0,0,0,0,0,0,0,0,0,0,0,0,0,1,0,3,7,9,11,11,14,13,15,11,11,16,17,20,22,25,26,25,26,26,28,33,37,39,41,41,41,42,44,46,47,44,44,49,53,55,55,52,54,54,51,52,56,57,56,57,57,59,61,61,59,60,64,65,66,70,70,73,73,74,75,75,76,73,69,61,66,70,69,64,68,70,73,75,77,75,69,62,56,48,34,18,15,18,19,19,20,20,24,28,34,37,35,31,26,25,24,23,24,27,26,27,27,30,38,46,51,50,41,36,36,35,37,46,52,47,50,57,65,70,69,69,62,59,61,65,76,88,101,107,112,126,140,151,151,143,145,152,156,163,170,175,184,198,209,212,213,220,223,222,229,229,231,233,237,242,252,261,268,272,258,239,220,214,228,240,253,266,276,288,299,312,319,328,339,354,365,376,387,398,411,414,422,434,444,458,476,495,519,542,557,565,557,548,556,567,573,570,568,578,585,581,590,592,578,573,589,595,594,596,596,596,587,577,569,564,565,567,560,554,548,535,526,527,541,557,576,590,586,570,552,542,536,535,537,543,547,540,526,513,503,495,494,490,506,516,509,489,463,446,437,429,426,427,420,415,416,425,426,417,397,379,368,357,351,343,340,334,323,308,290,283,292,300,307,313,316,333,351,369,379,388,397,402,397,382,363,350,339,327,317,305,292,278,268,257,256,260,269,276,283,287,290,300,301,296,296,306,310,322,339,353,367,382,396,404,409,417,430,454,478,486,474,457,445,441,445,449,457,461,462,461,464,474,483,492,510,517,525,538,548,554,558,563,562,555,543,533,524,516,509,504,495,482,468,458,448,438,427,416,418,423,426,429,447,478,508,524,524,533,546,544,527,503,484,470,460,451,442,438,448,456,456,440,419,403,377,349,332,319,310,305,293,283,273,263,250,227,207,200,193,187,186,180,171,162,152,147,143,144,157,170,166,161,156,144,130,124,132,150,149,135,135,145,150,149,152,150,145,141,140,132,124,122,124,134,149,152,143,133,130,141,144,141,129,121,123,133,141,143,134,122,107,105,115,129,141,147,140,134,133,125,120,131,141,139,133,142,143,131,124,130,139,146,153,159,166,173,183,192,191,189,189,197,198,189,179,173,172,179,187,196,206,213,221,229,240,246,256,266,277,288,301,312,320,326,331,338,349,361,369,375,388,400,411,420,429,440,454,466,475,486,499,513,529,535,539,542,544,545,544,535,513,500,492,491,497,500,511,526,526,530,541,533,519,510,492,471,453,427,405,395,384,371,359,351,348,344,342,330,310,295,282,269,253,236,226,219,219,222,230,249,268,288,312,331,346,350,341,339,344,351,348,335,326,314,294,284,290,299,305,306,313,323,332,343,351,340,323,313,305,305,298,291,286,293,306,327,345,352,344,337,342,354,364,364,361,365,373,376,370,370,382,387,386,392,400
0,0,0,0,0,0,0,0,0,0,0,0,0,0,0,0,0,0,0,0,0,0,0,0,0,0,0,0,0,0,0,0,0,0,0,0,0,0,0,0,0,0,0,0,0,0,0,0,0,0,0,0,0,0,0,0,0,0,0,0,0,0,0,0,0,0,0,0,0,0,0,0,0,0,0,0,0,0,0,0,0,0,0,0,0,0,0,0,0,0,0,0,0,0,0,0,0,0,0,0,0,0,0,0,0,0,0,0,0,0,0,0,0,0,0,0,0,0,0,0,0,0,0,0,0,0,0,0,0,0,0,0,0,0,0,0,0,0,0,0,0,0,0,0,0,0,0,0,0,0,0,0,0,0,0,0,0,0,0,0,0,0,0,0,0,0,0,0,0,0,0,0,0,0,0,0,0,0,0,0,0,0,0,0,0,0,0,0,0,0,0,0,0,0,0,0,0,0,0,0,0,0,0,0,0,0,0,0,0,0,0,0,0,0,0,0,0,0,0,0,0,0,0,0,0,0,0,0,0,0,0,0,0,0,0,0,0,0,0,0,0,0,0,0,0,0,0,0,0,0,0,0,0,0,0,0,0,0,0,0,0,0,0,0,0,0,0,0,0,0,0,0,0,0,0,0,0,0,0,0,0,0,0,0,0,0,0,0,0,0,0,0,0,0,0,0,0,0,0,0,0,0,0,0,0,0,0,0,0,0,0,0,0,0,0,0,0,0,0,0,0,0,0,0,0,0,0,0,0,0,0,0,0,0,0,0,0,0,0,0,0,0,0,0,0,0,0,0,0,0,0,0,0,0,0,0,0,0,0,0,0,0,0,0,0,0,0,0,0,0,0,0,0,0,0,0,0,0,0,0,1,1,0,0,0,0,0,0,0,0,0,0,0,0,0,0,0,0,0,1,10,10,9,10,10,12,14,16,17,17,14,12,13,15,18,20,22,24,25,26,29,30,33,35,39,44,49,49,49,49,50,50,48,47,46,50,58,58,57,56,56,56,57,56,56,60,61,62,63,63,65,67,65,63,65,69,72,75,78,78,80,81,84,88,91,89,80,67,73,80,81,80,81,86,89,91,91,87,78,71,65,52,28,17,15,17,19,21,21,21,22,23,27,33,37,39,34,28,29,30,28,28,28,28,28,27,28,31,37,41,36,34,35,36,36,42,48,43,44,51,55,60,58,60,59,57,60,63,72,80,86,92,97,103,111,122,125,123,129,139,144,152,159,168,175,185,193,199,202,205,208,210,212,213,222,233,242,250,260,266,270,271,254,232,212,211,222,234,248,266,275,287,305,324,337,348,355,364,378,388,399,409,415,421,429,437,451,459,470,483,504,528,537,538,538,540,553,566,579,587,589,592,598,600,606,606,598,593,598,599,600,599,599,599,593,582,569,556,556,557,554,549,541,534,527,522,532,547,561,572,579,566,551,541,531,526,529,539,543,534,525,510,498,482,480,499,512,506,490,475,455,440,429,418,409,404,401,399,397,398,398,396,384,375,371,364,359,352,346,336,322,308,297,300,313,322,327,331,336,347,360,374,389,400,406,406,395,378,361,347,333,322,314,301,288,278,267,264,269,272,274,283,294,301,308,316,322,321,324,332,336,334,339,347,361,381,397,410,418,422,431,447,469,484,479,465,457,459,462,461,464,469,475,476,479,488,498,506,521,528,532,542,559,572,581,582,568,554,543,529,513,503,495,489,482,474,463,453,445,437,428,415,404,400,402,410,430,465,487,492,494,505,513,509,504,494,482,473,458,445,430,417,410,406,409,402,381,364,347,337,322,309,301,295,287,279,275,267,253,231,213,200,191,181,174,169,163,160,159,158,157,162,169,171,161,151,141,135,129,125,138,155,155,150,151,152,159,164,166,166,161,157,151,143,139,139,132,132,148,159,157,152,145,150,147,135,128,130,136,142,146,142,129,117,109,109,119,130,139,145,148,151,145,132,127,139,149,142,143,152,156,148,135,128,134,143,150,152,156,164,176,185,192,195,198,206,213,207,193,179,173,175,185,196,207,216,222,231,242,248,255,266,279,287,299,312,319,328,337,346,358,364,372,387,401,413,423,431,439,451,467,477,493,511,524,538,547,545,540,542,541,541,543,544,523,494,477,479,488,495,499,517,523,530,534,523,509,500,480,456,438,416,393,377,374,364,348,334,328,329,338,328,303,283,264,257,247,232,220,211,215,226,240,257,280,306,334,359,387,398,389,373,370,363,346,335,321,308,303,296,304,315,318,321,324,333,341,349,358,348,332,325,320,316,308,302,296,290,296,308,323,332,327,331,346,356,357,353,348,354,364,369,366,362,370,374,373,381,388
0,0,0,0,0,0,0,0,0,0,0,0,0,0,0,0,0,0,0,0,0,0,0,0,0,0,0,0,0,0,0,0,0,0,0,0,0,0,0,0,0,0,0,0,0,0,0,0,0,0,0,0,0,0,0,0,0,0,0,0,0,0,0,0,0,0,0,0,0,0,0,0,0,0,0,0,0,0,0,0,0,0,0,0,0,0,0,0,0,0,0,0,0,0,0,0,0,0,0,0,0,0,0,0,0,0,0,0,0,0,0,0,0,0,0,0,0,0,0,0,0,0,0,0,0,0,0,0,0,0,0,0,0,0,0,0,0,0,0,0,0,0,0,0,0,0,0,0,0,0,0,0,0,0,0,0,0,0,0,0,0,0,0,0,0,0,0,0,0,0,0,0,0,0,0,0,0,0,0,0,0,0,0,0,0,0,0,0,0,0,0,0,0,0,0,0,0,0,0,0,0,0,0,0,0,0,0,0,0,0,0,0,0,0,0,0,0,0,0,0,0,0,0,0,0,0,0,0,0,0,0,0,0,0,0,0,0,0,0,0,0,0,0,0,0,0,0,0,0,0,0,0,0,0,0,0,0,0,0,0,0,0,0,0,0,0,0,0,0,0,0,0,0,0,0,0,0,0,0,0,0,0,0,0,0,0,0,0,0,0,0,0,0,0,0,0,0,0,0,0,0,0,0,0,0,0,0,0,0,0,0,0,0,0,0,0,0,0,0,0,0,0,0,0,0,0,0,0,0,0,0,0,0,0,0,0,0,0,0,0,0,0,0,0,0,0,0,0,0,0,0,0,0,0,0,0,0,0,0,0,0,0,0,0,0,0,0,0,0,0,0,0,0,0,0,0,0,0,3,5,12,16,13,11,7,3,0,0,0,0,0,0,0,0,0,0,0,0,4,9,15,18,14,10,12,14,16,18,19,19,18,17,17,17,17,19,19,22,27,31,34,36,36,41,43,47,50,51,54,56,55,53,51,52,51,52,58,61,61,62,61,60,60,57,56,64,66,66,66,66,68,71,71,67,70,75,78,80,87,91,89,92,102,110,114,111,89,83,93,101,105,105,103,105,106,108,103,95,83,70,61,41,20,19,19,20,23,29,34,37,34,30,30,29,30,35,40,38,36,37,36,36,34,31,29,28,29,31,30,31,32,33,34,35,37,38,40,41,42,44,45,47,49,50,53,56,57,62,72,80,80,82,91,102,114,111,110,113,116,122,133,142,146,152,159,171,176,177,180,185,191,197,206,217,228,241,250,260,264,260,257,254,243,222,202,205,215,228,242,259,272,283,299,320,336,353,365,376,383,392,403,412,422,428,432,443,452,456,466,481,499,513,515,512,521,532,543,555,570,582,589,593,601,603,602,604,606,601,592,587,583,584,583,576,568,557,548,536,536,534,531,528,527,526,524,514,514,523,536,551,559,561,558,549,539,524,517,523,519,515,511,501,491,482,479,499,501,487,469,454,441,430,423,414,402,391,385,381,378,376,371,366,363,362,361,357,351,343,332,324,315,308,314,320,336,345,350,352,355,365,375,383,394,402,407,404,396,382,364,350,336,324,308,292,282,275,276,278,281,284,289,294,304,313,326,344,358,367,375,381,381,381,374,363,354,365,382,402,422,435,444,451,462,474,477,474,471,475,478,476,479,481,486,490,494,501,516,524,532,542,549,560,573,585,598,597,579,557,543,528,509,496,487,481,474,467,459,452,442,432,423,414,404,394,383,389,401,420,432,444,458,471,478,477,472,474,476,470,461,449,435,424,420,408,386,370,359,346,332,321,312,300,292,283,275,270,263,255,252,239,223,208,197,188,181,178,178,183,186,185,182,183,178,167,155,146,142,141,145,139,134,149,162,163,164,163,164,166,167,166,165,165,164,161,158,157,151,146,153,165,172,166,160,157,147,142,143,145,154,155,151,139,126,115,109,109,115,123,132,138,144,148,148,140,136,146,150,144,148,158,165,165,155,141,131,135,141,141,145,154,164,172,179,183,190,198,209,212,204,198,187,181,183,192,203,209,220,228,234,242,253,263,275,285,296,308,315,325,336,348,356,368,385,401,415,426,436,443,450,464,477,498,522,530,534,540,540,537,528,528,530,525,528,538,532,501,472,466,471,479,486,507,524,529,521,509,494,483,472,451,429,406,380,366,361,353,339,324,316,312,314,308,292,278,263,251,238,226,213,209,213,228,246,268,297,326,347,386,423,430,415,393,379,363,346,338,329,322,318,307,311,321,329,335,339,344,351,357,360,358,350,346,339,329,320,315,307,302,297,293,300,307,317,330,341,349,346,339,342,351,357,355,349,349,349,358,371,378,379
0,0,0,0,0,0,0,0,0,0,0,0,0,0,0,0,0,0,0,0,0,0,0,0,0,0,0,0,0,0,0,0,0,0,0,0,0,0,0,0,0,0,0,0,0,0,0,0,0,0,0,0,0,0,0,0,0,0,0,0,0,0,0,0,0,0,0,0,0,0,0,0,0,0,0,0,0,0,0,0,0,0,0,0,0,0,0,0,0,0,0,0,0,0,0,0,0,0,0,0,0,0,0,0,0,0,0,0,0,0,0,0,0,0,0,0,0,0,0,0,0,0,0,0,0,0,0,0,0,0,0,0,0,0,0,0,0,0,0,0,0,0,0,0,0,0,0,0,0,0,0,0,0,0,0,0,0,0,0,0,0,0,0,0,0,0,0,0,0,0,0,0,0,0,0,0,0,0,0,0,0,0,0,0,0,0,0,0,0,0,0,0,0,0,0,0,0,0,0,0,0,0,0,0,0,0,0,0,0,0,0,0,0,0,0,0,0,0,0,0,0,0,0,0,0,0,0,0,0,0,0,0,0,0,0,0,0,0,0,0,0,0,0,0,0,0,0,0,0,0,0,0,0,0,0,0,0,0,0,0,0,0,0,0,0,0,0,0,0,0,0,0,0,0,0,0,0,0,0,0,0,0,0,0,0,0,0,0,0,0,0,0,0,0,0,0,0,0,0,0,0,0,0,0,0,0,0,0,0,0,0,0,0,0,0,0,0,0,0,0,0,0,0,0,0,0,0,0,0,0,0,0,0,0,0,0,0,0,0,0,0,0,0,0,0,0,0,0,0,0,0,0,0,0,0,0,0,0,0,0,0,0,0,0,0,0,0,0,0,0,0,0,0,0,0,0,0,0,4,16,25,27,27,26,22,11,3,1,4,6,6,3,1,0,0,0,0,2,16,22,18,16,13,10,15,16,16,19,21,21,22,20,21,22,25,22,20,22,27,33,37,41,44,47,52,54,57,61,60,60,58,56,55,53,54,53,53,59,64,68,66,64,63,59,55,60,66,67,69,70,72,74,75,71,73,79,85,86,92,100,104,108,115,128,139,126,96,96,112,123,130,126,120,121,120,116,106,98,81,57,39,23,21,27,26,22,24,31,38,45,47,44,43,36,31,32,41,47,44,39,39,39,40,40,37,32,31,30,32,32,34,34,34,35,36,37,41,42,43,44,43,44,51,54,57,62,61,62,74,87,93,100,108,121,133,141,133,128,130,137,151,161,155,150,152,159,166,175,182,194,200,206,218,231,237,243,254,263,259,253,243,234,224,207,193,197,209,222,234,252,268,282,298,319,339,352,363,378,387,393,401,407,409,415,424,431,439,448,460,476,486,489,490,500,514,528,539,551,567,578,583,592,602,604,601,594,595,596,596,585,574,569,569,563,549,539,534,525,520,520,517,511,515,521,517,504,500,506,516,532,546,558,561,553,539,522,504,500,498,493,491,490,490,480,468,472,473,464,449,437,427,417,409,404,394,386,379,376,371,363,360,354,351,347,343,339,337,332,329,330,327,321,328,341,353,364,370,370,375,382,392,400,407,407,402,395,388,374,359,346,333,320,301,288,290,290,294,293,293,300,303,312,319,327,346,372,392,414,433,444,444,442,433,413,382,365,377,394,411,426,435,451,465,476,485,487,487,492,494,493,496,498,496,498,506,514,526,537,543,555,565,575,590,602,607,599,587,565,542,526,512,500,491,479,471,465,459,452,439,429,422,409,400,389,375,372,384,396,404,415,430,434,437,447,455,464,468,465,460,450,440,425,414,402,387,374,360,346,335,326,315,306,295,284,272,261,252,242,232,224,218,209,200,193,188,187,190,199,205,204,202,198,186,176,173,171,163,157,159,149,143,153,161,161,158,158,156,157,157,157,156,155,158,160,161,164,164,166,168,175,181,184,178,167,158,160,162,159,160,153,143,132,119,112,114,116,113,116,122,131,139,145,153,152,149,155,160,156,151,163,174,177,168,151,140,139,138,138,139,143,150,157,161,171,184,197,209,220,220,216,206,195,186,189,197,205,213,222,231,241,248,261,272,280,293,306,318,330,340,352,360,377,395,408,422,435,443,450,457,470,491,517,529,534,534,535,534,529,516,512,516,508,509,527,529,499,468,453,455,465,480,496,502,498,494,489,482,466,466,446,422,395,369,358,353,350,337,322,318,313,305,299,281,268,264,251,234,219,211,207,219,236,254,276,302,332,363,397,407,397,375,361,355,347,346,343,335,329,323,320,320,328,338,348,351,354,363,369,371,370,369,367,357,344,333,325,316,312,308,301,296,295,310,328,334,337,333,332,343,351,353,346,343,343,342,351,363,367,365
0,0,0,0,0,0,0,0,0,0,0,0,0,0,0,0,0,0,0,0,0,0,0,0,0,0,0,0,0,0,0,0,0,0,0,0,0,0,0,0,0,0,0,0,0,0,0,0,0,0,0,0,0,0,0,0,0,0,0,0,0,0,0,0,0,0,0,0,0,0,0,0,0,0,0,0,0,0,0,0,0,0,0,0,0,0,0,0,0,0,0,0,0,0,0,0,0,0,0,0,0,0,0,0,0,0,0,0,0,0,0,0,0,0,0,0,0,0,0,0,0,0,0,0,0,0,0,0,0,0,0,0,0,0,0,0,0,0,0,0,0,0,0,0,0,0,0,0,0,0,0,0,0,0,0,0,0,0,0,0,0,0,0,0,0,0,0,0,0,0,0,0,0,0,0,0,0,0,0,0,0,0,0,0,0,0,0,0,0,0,0,0,0,0,0,0,0,0,0,0,0,0,0,0,0,0,0,0,0,0,0,0,0,0,0,0,0,0,0,0,0,0,0,0,0,0,0,0,0,0,0,0,0,0,0,0,0,0,0,0,0,0,0,0,0,0,0,0,0,0,0,0,0,0,0,0,0,0,0,0,0,0,0,0,0,0,0,0,0,0,0,0,0,0,0,0,0,0,0,0,0,0,0,0,0,0,0,0,0,0,0,0,0,0,0,0,0,0,0,0,0,0,0,0,0,0,0,0,0,0,0,0,0,0,0,0,0,0,0,0,0,0,0,0,0,0,0,0,0,0,0,0,0,0,0,0,0,0,0,0,0,0,0,0,0,0,0,0,0,0,0,0,0,0,0,0,0,0,0,0,0,0,0,0,0,0,0,0,0,0,0,0,0,0,0,0,0,0,1,14,27,32,33,26,24,19,17,15,17,17,17,14,8,5,4,3,3,7,16,19,19,19,17,17,17,19,18,19,23,23,21,20,19,26,30,27,25,24,27,33,38,44,48,51,55,60,63,66,65,63,62,61,59,57,55,57,51,56,63,68,72,70,67,64,60,58,59,62,70,70,71,76,80,79,76,81,93,100,100,106,115,121,131,147,153,134,103,97,116,134,146,145,136,128,121,115,97,89,79,58,33,23,32,39,35,28,25,26,35,40,44,50,50,45,40,36,38,45,48,44,44,43,43,45,44,39,31,29,31,32,35,39,41,41,38,39,46,49,50,53,56,52,53,62,69,73,73,64,65,78,91,108,121,128,137,148,156,161,158,159,175,193,187,177,173,172,182,192,196,210,218,221,230,238,243,250,259,265,259,245,229,218,204,190,185,194,211,228,242,258,271,284,299,320,339,350,361,371,380,388,394,393,397,403,410,418,428,440,452,463,471,475,485,495,506,521,536,555,569,567,568,582,592,600,602,593,584,583,584,580,567,564,557,552,540,529,522,519,513,510,501,494,502,506,498,490,484,490,513,528,538,539,548,545,534,525,513,502,493,495,504,511,507,493,474,459,452,443,432,422,414,407,402,396,394,396,396,395,390,382,374,362,355,350,350,352,352,350,350,350,343,337,337,348,365,379,389,388,396,405,411,416,413,406,398,384,370,354,342,330,318,307,298,298,303,307,311,310,308,317,321,328,335,343,366,399,429,458,489,505,512,506,480,446,414,397,392,395,406,416,431,445,459,472,483,492,502,511,513,511,513,514,507,508,514,524,533,545,556,572,587,602,609,609,603,600,591,571,547,533,527,519,507,492,479,470,462,450,436,424,411,402,391,379,365,358,363,378,391,402,409,413,422,440,451,459,459,451,447,444,435,422,409,395,384,375,363,349,339,331,321,312,299,288,277,269,259,249,241,228,216,208,202,198,191,185,182,187,198,207,208,203,196,193,194,191,185,179,174,168,164,163,162,158,153,150,151,154,157,156,159,162,159,160,165,168,169,169,171,178,185,189,188,179,174,176,172,164,153,143,132,123,117,119,127,128,118,118,122,129,136,142,152,163,166,171,173,167,160,170,185,187,173,156,157,165,165,161,157,150,149,159,170,182,195,207,221,231,239,235,221,204,196,191,196,203,211,219,228,240,250,259,267,276,290,306,319,331,343,356,370,384,399,416,428,440,447,457,477,499,509,515,520,515,520,517,522,524,516,496,483,489,507,521,513,487,461,443,444,458,471,485,486,480,475,464,457,448,442,428,411,385,361,344,343,345,337,324,316,320,319,304,280,260,252,245,234,213,207,207,221,240,256,273,294,319,337,355,350,341,336,342,338,329,331,334,328,326,324,319,322,325,329,340,349,356,362,366,368,372,376,381,373,361,351,342,331,327,328,323,314,307,302,317,322,322,326,333,343,350,347,342,336,335,338,347,357,360,356
0,0,0,0,0,0,0,0,0,0,0,0,0,0,0,0,0,0,0,0,0,0,0,0,0,0,0,0,0,0,0,0,0,0,0,0,0,0,0,0,0,0,0,0,0,0,0,0,0,0,0,0,0,0,0,0,0,0,0,0,0,0,0,0,0,0,0,0,0,0,0,0,0,0,0,0,0,0,0,0,0,0,0,0,0,0,0,0,0,0,0,0,0,0,0,0,0,0,0,0,0,0,0,0,0,0,0,0,0,0,0,0,0,0,0,0,0,0,0,0,0,0,0,0,0,0,0,0,0,0,0,0,0,0,0,0,0,0,0,0,0,0,0,0,0,0,0,0,0,0,0,0,0,0,0,0,0,0,0,0,0,0,0,0,0,0,0,0,0,0,0,0,0,0,0,0,0,0,0,0,0,0,0,0,0,0,0,0,0,0,0,0,0,0,0,0,0,0,0,0,0,0,0,0,0,0,0,0,0,0,0,0,0,0,0,0,0,0,0,0,0,0,0,0,0,0,0,0,0,0,0,0,0,0,0,0,0,0,0,0,0,0,0,0,0,0,0,0,0,0,0,0,0,0,0,0,0,0,0,0,0,0,0,0,0,0,0,0,0,0,0,0,0,0,0,0,0,0,0,0,0,0,0,0,0,0,0,0,0,0,0,0,0,0,0,0,0,0,0,0,0,0,0,0,0,0,0,0,0,0,0,0,0,0,0,0,0,0,0,0,0,0,0,0,0,0,0,0,0,0,0,0,0,0,0,0,0,0,0,0,0,0,0,0,0,0,0,0,0,0,0,0,0,0,0,0,0,0,0,0,0,0,0,0,0,0,0,0,0,0,0,0,0,0,0,0,0,0,0,4,20,30,34,32,30,26,23,23,20,18,20,17,15,15,18,17,15,15,14,17,18,20,19,18,21,22,21,22,25,25,24,26,23,25,32,33,32,30,28,29,32,42,52,56,59,62,64,65,66,69,70,70,67,63,58,59,59,53,59,65,71,71,71,70,67,63,62,61,65,67,71,79,88,92,88,89,96,102,108,113,118,129,144,157,153,134,108,109,127,138,147,150,145,138,136,118,96,84,69,53,35,23,33,54,58,49,39,31,29,30,33,40,49,53,52,47,42,39,41,41,44,47,47,47,46,43,38,32,33,35,37,39,45,47,44,40,40,43,46,50,54,58,64,71,79,90,89,72,65,73,89,106,119,128,136,144,157,179,186,182,184,196,200,194,194,196,201,208,212,220,226,226,234,237,234,237,250,253,240,226,215,200,186,182,188,197,212,226,240,257,270,283,301,315,327,336,347,360,372,381,382,379,384,390,395,406,421,435,445,450,456,464,470,483,497,510,526,543,551,550,561,578,585,590,595,597,590,581,573,563,557,560,561,564,556,547,542,537,529,514,500,486,480,479,471,466,465,478,495,503,512,520,541,547,540,533,519,508,514,531,544,541,530,518,501,483,463,446,435,426,415,410,411,409,407,409,408,406,401,396,391,382,376,374,372,374,374,370,370,367,360,352,346,353,369,385,397,403,413,422,430,429,420,408,397,380,365,353,343,331,322,314,309,312,317,325,328,326,328,330,337,344,350,358,381,419,463,500,526,543,561,542,501,463,442,447,440,427,423,433,449,459,457,464,476,488,502,515,523,525,525,525,522,523,528,537,547,555,567,581,593,599,594,587,580,574,569,552,540,535,541,539,520,495,482,474,465,454,440,427,414,402,385,368,354,345,341,358,376,384,394,405,415,431,445,449,446,439,435,431,428,416,403,390,381,375,361,349,339,328,321,314,302,294,286,278,271,264,254,236,224,217,209,204,197,193,183,178,181,191,202,205,203,199,190,186,188,191,192,190,182,171,159,150,149,155,164,172,175,170,172,178,171,162,169,180,185,184,179,175,179,185,190,195,197,192,178,165,156,146,134,123,120,127,135,138,128,123,126,138,147,151,156,167,178,186,191,185,176,180,193,197,183,172,177,187,188,184,177,163,156,161,171,186,198,213,230,243,253,247,231,220,208,199,206,205,209,224,235,242,251,262,269,276,292,305,318,329,344,363,384,398,411,424,437,444,452,474,500,511,516,516,510,503,500,501,510,515,511,489,465,483,504,510,500,476,452,434,431,448,467,485,487,474,452,449,441,428,419,408,397,380,357,332,328,331,324,314,307,310,306,290,274,258,244,234,225,207,202,211,228,243,255,264,282,305,315,321,320,316,318,321,321,317,314,314,318,322,318,311,310,310,313,326,342,350,352,351,356,365,367,372,380,376,366,356,346,343,344,339,328,320,312,305,307,321,335,340,338,336,335,332,327,325,331,337,344,348,343
0,0,0,0,0,0,0,0,0,0,0,0,0,0,0,0,0,0,0,0,0,0,0,0,0,0,0,0,0,0,0,0,0,0,0,0,0,0,0,0,0,0,0,0,0,0,0,0,0,0,0,0,0,0,0,0,0,0,0,0,0,0,0,0,0,0,0,0,0,0,0,0,0,0,0,0,0,0,0,0,0,0,0,0,0,0,0,0,0,0,0,0,0,0,0,0,0,0,0,0,0,0,0,0,0,0,0,0,0,0,0,0,0,0,0,0,0,0,0,0,0,0,0,0,0,0,0,0,0,0,0,0,0,0,0,0,0,0,0,0,0,0,0,0,0,0,0,0,0,0,0,0,0,0,0,0,0,0,0,0,0,0,0,0,0,0,0,0,0,0,0,0,0,0,0,0,0,0,0,0,0,0,0,0,0,0,0,0,0,0,0,0,0,0,0,0,0,0,0,0,0,0,0,0,0,0,0,0,0,0,0,0,0,0,0,0,0,0,0,0,0,0,0,0,0,0,0,0,0,0,0,0,0,0,0,0,0,0,0,0,0,0,0,0,0,0,0,0,0,0,0,0,0,0,0,0,0,0,0,0,0,0,0,0,0,0,0,0,0,0,0,0,0,0,0,0,0,0,0,0,0,0,0,0,0,0,0,0,0,0,0,0,0,0,0,0,0,0,0,0,0,0,0,0,0,0,0,0,0,0,0,0,0,0,0,0,0,0,0,0,0,0,0,0,0,0,0,0,0,0,0,0,0,0,0,0,0,0,0,0,0,0,0,0,0,0,0,0,0,0,0,0,0,0,0,0,0,0,0,0,0,0,0,0,0,0,0,0,0,0,0,0,0,0,0,0,0,0,0,3,10,20,25,31,35,31,30,29,31,31,29,23,20,19,17,19,22,22,18,21,20,23,21,19,21,24,23,22,25,26,28,30,31,30,39,43,41,39,38,34,33,33,43,56,63,68,69,71,71,73,75,76,73,67,58,61,63,57,56,57,64,68,70,69,69,66,65,66,63,68,80,92,99,103,99,96,104,109,111,119,126,133,153,168,155,126,111,114,130,146,156,164,158,146,134,107,92,84,70,51,30,25,42,65,73,62,50,37,34,37,41,42,47,52,54,57,55,52,49,45,45,50,52,51,50,47,39,33,33,35,35,41,46,46,49,47,48,52,56,58,58,62,69,79,89,98,102,86,71,70,84,101,114,120,129,142,153,171,173,161,165,178,182,187,196,206,211,216,222,217,212,211,215,216,215,216,225,228,221,213,199,181,172,181,191,202,215,229,239,253,269,283,295,307,318,331,344,351,359,365,365,366,374,384,393,401,412,422,432,439,443,450,456,467,486,496,509,522,535,551,560,567,573,582,591,597,595,591,581,570,572,578,581,586,587,581,570,558,547,533,517,500,486,473,463,455,455,466,476,487,494,503,513,507,502,506,518,526,539,545,529,512,506,503,495,485,469,453,445,440,432,429,426,427,427,423,420,416,415,410,406,398,392,392,390,390,394,392,389,383,372,363,359,363,370,381,395,406,415,426,438,440,432,421,404,383,369,354,344,340,336,327,323,327,334,342,346,348,350,345,345,355,365,374,402,440,475,506,526,545,568,554,514,485,484,502,493,471,450,450,468,485,484,475,484,497,513,524,534,541,541,539,540,542,544,551,563,574,581,589,593,590,580,569,561,551,542,536,528,521,519,518,504,483,471,463,456,446,435,420,406,392,378,362,347,336,324,336,355,366,380,393,402,415,430,437,434,423,417,413,412,403,390,382,371,367,360,348,332,322,318,313,308,305,297,292,290,277,259,245,233,220,213,208,200,193,184,175,171,176,188,192,195,195,186,176,175,179,184,190,186,171,158,150,147,155,171,182,186,185,183,186,178,167,167,180,193,200,197,188,185,181,187,196,203,200,185,170,157,143,134,130,128,133,145,150,143,133,132,145,158,167,171,181,188,199,207,205,198,197,204,211,204,197,200,208,209,202,187,173,170,164,165,180,195,213,228,242,254,258,251,236,218,214,226,229,222,232,246,262,275,288,296,297,296,303,317,335,356,378,392,407,422,435,444,452,470,488,502,507,508,503,492,482,480,494,502,504,496,474,452,466,483,483,487,478,457,430,421,436,461,470,475,469,444,429,417,409,402,394,385,367,346,319,310,312,308,297,284,279,276,272,263,250,243,226,214,201,196,209,228,238,242,251,266,283,296,297,293,295,305,313,311,306,300,302,306,314,317,308,298,296,297,312,329,337,339,343,348,352,359,366,375,379,375,368,363,358,349,340,330,329,330,321,310,313,318,322,322,322,320,319,322,324,326,328,331,335,341
0,0,0,0,0,0,0,0,0,0,0,0,0,0,0,0,0,0,0,0,0,0,0,0,0,0,0,0,0,0,0,0,0,0,0,0,0,0,0,0,0,0,0,0,0,0,0,0,0,0,0,0,0,0,0,0,0,0,0,0,0,0,0,0,0,0,0,0,0,0,0,0,0,0,0,0,0,0,0,0,0,0,0,0,0,0,0,0,0,0,0,0,0,0,0,0,0,0,0,0,0,0,0,0,0,0,0,0,0,0,0,0,0,0,0,0,0,0,0,0,0,0,0,0,0,0,0,0,0,0,0,0,0,0,0,0,0,0,0,0,0,0,0,0,0,0,0,0,0,0,0,0,0,0,0,0,0,0,0,0,0,0,0,0,0,0,0,0,0,0,0,0,0,0,0,0,0,0,0,0,0,0,0,0,0,0,0,0,0,0,0,0,0,0,0,0,0,0,0,0,0,0,0,0,0,0,0,0,0,0,0,0,0,0,0,0,0,0,0,0,0,0,0,0,0,0,0,0,0,0,0,0,0,0,0,0,0,0,0,0,0,0,0,0,0,0,0,0,0,0,0,0,0,0,0,0,0,0,0,0,0,0,0,0,0,0,0,0,0,0,0,0,0,0,0,0,0,0,0,0,0,0,0,0,0,0,0,0,0,0,0,0,0,0,0,0,0,0,0,0,0,0,0,0,0,0,0,0,0,0,0,0,0,0,0,0,0,0,0,0,0,0,0,0,0,0,0,0,0,0,0,0,0,0,0,0,0,0,0,0,0,0,0,0,0,0,0,0,0,0,0,0,0,0,0,0,0,0,0,0,0,0,0,0,0,0,0,0,0,0,0,0,0,0,0,0,0,0,0,0,0,6,18,24,28,32,38,40,38,40,39,32,28,27,24,24,25,26,26,24,24,26,23,20,23,26,28,27,28,34,35,38,40,33,35,44,44,44,43,41,42,40,38,47,60,69,75,76,75,79,78,77,75,69,59,62,68,68,64,60,56,58,61,64,68,70,72,75,74,74,83,91,100,108,113,109,111,122,121,127,135,143,147,146,134,120,120,129,131,138,150,159,159,148,133,117,107,97,75,49,33,19,29,48,56,48,41,34,33,41,47,49,50,51,53,55,58,58,56,56,54,50,52,53,52,48,44,36,32,33,33,36,42,49,50,51,53,55,60,65,65,71,77,86,94,105,111,105,84,69,80,94,107,110,119,129,142,154,149,137,148,162,166,172,181,188,195,204,209,202,198,195,198,197,196,198,205,209,202,196,185,171,170,183,196,207,216,230,243,257,272,285,297,307,317,327,334,340,345,353,351,357,366,378,383,392,399,406,412,421,428,435,444,462,486,502,519,524,539,554,572,588,594,605,611,607,596,586,576,578,590,600,603,613,619,605,586,570,555,536,520,509,495,486,488,469,452,447,453,461,463,461,466,468,478,499,520,537,540,517,482,470,472,474,471,461,455,453,452,449,445,443,444,447,443,440,437,433,429,424,421,416,408,408,407,409,414,413,403,390,382,376,374,375,384,392,405,416,426,433,436,435,427,418,405,387,371,364,356,349,345,339,335,336,345,358,364,363,364,361,359,365,377,392,423,458,486,510,535,564,584,578,545,523,531,546,533,499,474,470,476,502,510,496,497,503,512,526,539,552,557,555,554,556,557,563,577,583,582,581,580,581,572,559,549,538,528,524,515,505,495,489,480,473,461,448,440,428,417,407,395,379,366,354,340,327,314,326,341,354,367,379,390,400,412,418,415,408,402,400,398,390,380,370,360,355,350,341,330,327,325,323,320,320,319,311,298,281,265,254,239,224,217,207,198,190,182,172,166,166,170,174,184,192,185,173,165,162,168,175,177,170,160,151,145,148,161,170,178,187,194,195,182,170,169,179,193,206,211,207,199,195,192,194,203,200,181,162,152,147,145,145,148,145,153,163,162,152,144,150,163,175,184,195,204,215,223,225,218,217,217,221,220,218,221,228,226,214,197,190,194,186,176,179,188,203,217,234,252,263,261,246,229,230,243,250,244,244,256,270,281,291,299,301,305,315,329,348,372,382,393,410,424,441,457,468,477,488,495,494,492,487,469,460,478,491,494,487,485,467,442,453,469,464,472,475,469,442,418,418,440,454,465,468,457,429,406,393,385,380,370,349,325,302,289,293,288,274,267,261,255,256,250,239,228,214,203,198,195,205,217,213,222,236,250,261,269,273,276,285,294,298,298,294,289,294,298,310,315,306,291,290,297,305,314,318,323,328,329,335,349,359,365,373,380,378,372,362,349,342,341,342,340,335,327,321,319,323,321,323,324,325,327,335,340,342,345,343,353
0,0,0,0,0,0,0,0,0,0,0,0,0,0,0,0,0,0,0,0,0,0,0,0,0,0,0,0,0,0,0,0,0,0,0,0,0,0,0,0,0,0,0,0,0,0,0,0,0,0,0,0,0,0,0,0,0,0,0,0,0,0,0,0,0,0,0,0,0,0,0,0,0,0,0,0,0,0,0,0,0,0,0,0,0,0,0,0,0,0,0,0,0,0,0,0,0,0,0,0,0,0,0,0,0,0,0,0,0,0,0,0,0,0,0,0,0,0,0,0,0,0,0,0,0,0,0,0,0,0,0,0,0,0,0,0,0,0,0,0,0,0,0,0,0,0,0,0,0,0,0,0,0,0,0,0,0,0,0,0,0,0,0,0,0,0,0,0,0,0,0,0,0,0,0,0,0,0,0,0,0,0,0,0,0,0,0,0,0,0,0,0,0,0,0,0,0,0,0,0,0,0,0,0,0,0,0,0,0,0,0,0,0,0,0,0,0,0,0,0,0,0,0,0,0,0,0,0,0,0,0,0,0,0,0,0,0,0,0,0,0,0,0,0,0,0,0,0,0,0,0,0,0,0,0,0,0,0,0,0,0,0,0,0,0,0,0,0,0,0,0,0,0,0,0,0,0,0,0,0,0,0,0,0,0,0,0,0,0,0,0,0,0,0,0,0,0,0,0,0,0,0,0,0,0,0,0,0,0,0,0,0,0,0,0,0,0,0,0,0,0,0,0,0,0,0,0,0,0,0,0,0,0,0,0,0,0,0,0,0,0,0,0,0,0,0,0,0,0,0,0,0,0,0,0,0,0,0,0,0,0,0,0,0,0,0,0,0,0,0,0,0,0,0,0,0,0,0,0,0,0,0,6,19,29,36,42,47,51,49,49,43,40,37,31,30,33,36,35,37,34,32,31,27,23,25,31,34,32,35,37,38,38,32,33,43,51,55,53,51,48,52,55,58,55,52,59,68,73,78,80,80,76,69,66,76,83,82,75,67,60,63,68,73,75,80,83,89,94,88,87,92,99,103,111,118,117,125,131,140,147,147,148,141,138,131,142,153,146,147,160,170,161,149,142,140,131,108,87,65,47,32,24,23,27,25,21,24,27,31,40,46,45,46,48,52,55,56,59,60,62,58,53,54,58,56,51,43,36,35,36,37,37,41,50,55,55,56,61,64,64,68,76,84,93,105,113,114,98,79,79,83,87,95,108,113,121,126,122,131,152,164,163,161,166,174,184,187,184,180,178,177,174,174,174,176,182,186,181,175,167,165,175,190,203,213,225,235,246,258,270,281,292,304,313,319,318,328,334,336,341,351,360,368,376,381,387,392,400,410,420,435,448,464,490,521,549,552,564,581,593,602,616,624,620,606,590,577,583,587,600,616,625,625,622,616,601,579,561,541,521,505,500,510,505,483,464,450,442,434,437,436,430,436,462,480,489,501,504,487,454,444,444,441,442,441,440,440,440,443,443,446,452,459,460,456,456,446,430,429,426,423,419,415,414,415,414,415,407,401,394,388,385,386,394,403,414,424,425,431,431,425,420,411,398,390,380,371,364,360,357,349,346,349,356,365,377,384,382,380,377,376,382,398,424,448,471,498,527,556,580,593,576,567,575,569,540,512,503,492,487,509,527,513,509,514,524,535,542,550,562,568,569,571,577,581,582,578,570,565,563,565,560,549,538,529,517,508,497,486,477,470,463,462,454,441,428,415,403,396,385,368,354,344,331,317,302,308,325,341,356,367,380,394,404,407,402,397,388,384,380,375,368,359,348,341,334,328,322,318,319,320,324,336,337,324,312,299,281,264,246,231,222,213,206,203,192,179,169,163,161,169,183,192,190,182,172,161,157,163,170,170,162,153,146,145,150,159,168,183,195,197,186,174,170,176,188,202,214,219,216,213,204,202,208,204,190,180,173,168,165,161,167,165,166,177,181,172,165,160,169,179,190,202,212,220,224,226,223,218,215,212,218,223,232,237,240,229,215,214,217,206,198,200,201,205,219,233,249,264,271,264,254,253,263,270,269,268,271,273,268,266,281,300,314,324,329,339,356,369,383,401,420,441,453,466,477,482,484,481,475,465,443,447,477,486,484,472,470,456,433,448,456,447,452,461,466,452,416,404,426,445,452,455,455,433,402,385,368,355,344,328,298,279,266,272,267,257,250,246,241,234,230,221,211,197,191,191,193,196,199,199,204,220,235,240,248,253,257,264,276,281,282,280,276,284,288,299,308,295,275,280,296,303,306,301,304,308,309,319,329,342,357,367,377,380,376,366,359,358,357,354,350,344,339,333,331,341,343,345,344,345,346,346,354,359,361,356,353
0,0,0,0,0,0,0,0,0,0,0,0,0,0,0,0,0,0,0,0,0,0,0,0,0,0,0,0,0,0,0,0,0,0,0,0,0,0,0,0,0,0,0,0,0,0,0,0,0,0,0,0,0,0,0,0,0,0,0,0,0,0,0,0,0,0,0,0,0,0,0,0,0,0,0,0,0,0,0,0,0,0,0,0,0,0,0,0,0,0,0,0,0,0,0,0,0,0,0,0,0,0,0,0,0,0,0,0,0,0,0,0,0,0,0,0,0,0,0,0,0,0,0,0,0,0,0,0,0,0,0,0,0,0,0,0,0,0,0,0,0,0,0,0,0,0,0,0,0,0,0,0,0,0,0,0,0,0,0,0,0,0,0,0,0,0,0,0,0,0,0,0,0,0,0,0,0,0,0,0,0,0,0,0,0,0,0,0,0,0,0,0,0,0,0,0,0,0,0,0,0,0,0,0,0,0,0,0,0,0,0,0,0,0,0,0,0,0,0,0,0,0,0,0,0,0,0,0,0,0,0,0,0,0,0,0,0,0,0,0,0,0,0,0,0,0,0,0,0,0,0,0,0,0,0,0,0,0,0,0,0,0,0,0,0,0,0,0,0,0,0,0,0,0,0,0,0,0,0,0,0,0,0,0,0,0,0,0,0,0,0,0,0,0,0,0,0,0,0,0,0,0,0,0,0,0,0,0,0,0,0,0,0,0,0,0,0,0,0,0,0,0,0,0,0,0,0,0,0,0,0,0,0,0,0,0,0,0,0,0,0,0,0,0,0,0,0,0,0,0,0,0,0,0,0,0,0,0,0,0,0,0,0,0,0,0,0,0,0,0,0,0,0,0,0,0,0,0,0,0,0,0,6,21,31,39,48,55,61,64,62,59,57,54,47,42,43,46,46,50,48,44,44,41,30,24,30,37,37,36,36,39,42,39,36,43,52,59,63,62,62,65,65,71,73,65,56,50,60,74,84,91,88,75,72,84,95,92,79,69,72,71,72,84,91,98,101,98,99,100,90,96,103,110,112,115,124,128,134,140,149,150,149,146,147,144,149,159,166,168,172,178,174,161,156,149,141,123,107,87,72,55,39,26,20,21,22,23,24,26,33,39,37,36,39,43,45,46,51,58,61,61,58,56,58,62,60,51,45,38,36,36,37,37,39,48,57,60,66,70,68,71,76,81,91,100,107,113,113,101,88,82,80,81,89,96,101,102,106,129,145,150,149,143,150,160,168,164,158,152,150,150,149,147,150,153,158,159,160,160,163,172,183,195,209,222,235,248,255,261,266,272,285,298,298,302,310,313,317,324,333,343,353,358,364,374,378,382,393,403,419,435,453,476,505,530,554,568,582,601,623,632,633,624,609,596,586,584,592,597,605,616,627,626,614,602,586,573,554,529,517,520,527,528,525,505,482,463,450,444,445,447,442,422,417,426,438,445,460,462,445,437,436,429,424,421,423,425,428,428,430,431,436,445,456,461,464,445,422,413,408,407,404,401,399,399,397,396,401,400,395,386,386,392,399,406,413,415,416,419,420,419,415,410,405,399,388,383,379,374,367,359,356,360,365,373,381,388,392,393,391,390,396,410,431,455,469,487,511,538,563,593,604,610,610,589,565,548,528,508,499,515,537,532,526,529,537,548,561,563,565,577,587,589,589,588,579,569,558,551,544,541,540,535,526,517,505,493,484,472,460,454,446,442,442,434,423,409,394,380,368,358,348,340,326,312,297,300,315,327,340,351,367,381,389,390,383,378,373,366,361,361,356,346,337,328,318,314,311,308,303,306,317,328,330,321,307,294,279,260,239,226,214,208,203,197,191,183,172,163,158,163,174,177,178,177,173,167,156,153,160,168,162,151,145,143,153,162,171,185,198,204,198,189,178,173,181,195,207,217,226,227,219,213,216,215,209,202,198,192,186,179,180,183,182,187,191,189,187,182,183,191,199,213,223,228,223,214,209,203,199,205,217,227,237,241,245,242,235,236,234,228,225,231,229,227,239,251,260,273,288,291,285,282,284,286,284,272,262,252,252,264,291,323,339,345,351,359,366,375,391,408,435,454,469,473,476,477,479,475,458,432,415,435,463,476,475,463,451,437,416,427,435,433,429,433,438,423,402,394,404,426,440,444,443,425,396,377,350,328,316,299,280,262,247,248,249,241,235,231,227,215,209,206,199,193,197,199,198,198,196,198,201,212,221,227,230,232,241,253,263,265,266,261,261,271,276,275,287,283,267,262,284,297,293,283,278,280,288,299,309,325,343,355,367,374,370,368,369,371,371,366,363,355,353,352,345,346,357,365,368,370,368,365,368,373,376,372,366
0,0,0,0,0,0,0,0,0,0,0,0,0,0,0,0,0,0,0,0,0,0,0,0,0,0,0,0,0,0,0,0,0,0,0,0,0,0,0,0,0,0,0,0,0,0,0,0,0,0,0,0,0,0,0,0,0,0,0,0,0,0,0,0,0,0,0,0,0,0,0,0,0,0,0,0,0,0,0,0,0,0,0,0,0,0,0,0,0,0,0,0,0,0,0,0,0,0,0,0,0,0,0,0,0,0,0,0,0,0,0,0,0,0,0,0,0,0,0,0,0,0,0,0,0,0,0,0,0,0,0,0,0,0,0,0,0,0,0,0,0,0,0,0,0,0,0,0,0,0,0,0,0,0,0,0,0,0,0,0,0,0,0,0,0,0,0,0,0,0,0,0,0,0,0,0,0,0,0,0,0,0,0,0,0,0,0,0,0,0,0,0,0,0,0,0,0,0,0,0,0,0,0,0,0,0,0,0,0,0,0,0,0,0,0,0,0,0,0,0,0,0,0,0,0,0,0,0,0,0,0,0,0,0,0,0,0,0,0,0,0,0,0,0,0,0,0,0,0,0,0,0,0,0,0,0,0,0,0,0,0,0,0,0,0,0,0,0,0,0,0,0,0,0,0,0,0,0,0,0,0,0,0,0,0,0,0,0,0,0,0,0,0,0,0,0,0,0,0,0,0,0,0,0,0,0,0,0,0,0,0,0,0,0,0,0,0,0,0,0,0,0,0,0,0,0,0,0,0,0,0,0,0,0,0,0,0,0,0,0,0,0,0,0,0,0,0,0,0,0,0,0,0,0,0,0,0,0,0,0,0,0,0,0,0,0,0,0,0,0,0,0,0,0,0,0,0,0,0,0,0,1,14,25,36,44,52,59,68,75,74,69,67,66,61,59,60,64,63,66,65,63,58,53,40,29,29,37,42,38,38,44,47,48,43,42,48,57,67,71,74,78,79,74,75,74,63,51,58,73,91,102,94,79,78,93,103,95,81,84,90,91,78,82,95,106,117,114,110,111,103,112,114,112,120,127,130,133,138,145,156,158,159,160,161,160,164,171,179,182,179,179,173,160,151,146,136,122,103,85,77,63,44,30,20,20,21,22,25,28,28,34,32,32,32,32,34,36,45,57,60,64,63,63,64,63,64,61,57,50,43,39,39,40,40,41,51,61,64,72,75,74,76,84,93,101,107,109,117,120,105,96,101,100,94,90,91,92,96,101,105,110,116,120,129,140,145,137,130,130,134,135,138,143,149,151,151,157,167,173,181,194,201,208,220,233,239,245,250,244,246,256,268,283,279,285,291,299,308,317,327,333,340,347,355,365,373,381,390,400,416,434,457,485,503,517,531,553,578,603,628,637,626,616,608,598,592,597,600,604,608,616,615,610,601,582,561,545,531,536,549,554,560,556,546,528,508,487,468,465,471,480,464,435,416,407,411,418,430,435,426,423,422,412,407,405,407,409,412,410,414,420,428,439,449,459,456,444,424,405,398,390,385,383,380,378,376,373,378,381,379,376,376,380,390,396,404,405,404,405,405,406,408,408,405,402,404,400,394,384,371,362,362,371,376,381,387,397,405,409,408,407,423,439,444,459,474,496,521,538,556,579,587,604,618,622,604,579,553,533,517,528,548,548,539,543,550,559,572,581,582,590,597,600,597,587,575,564,553,542,532,526,523,521,515,509,497,486,475,462,450,439,431,426,425,422,411,397,384,370,354,343,334,330,319,306,291,286,294,303,320,334,348,359,369,371,364,359,356,351,343,345,346,337,325,316,309,306,302,298,292,289,298,309,305,295,287,279,267,251,233,220,212,204,196,188,178,174,169,162,155,156,160,160,163,166,166,166,159,150,149,156,161,151,142,142,149,158,169,179,191,203,209,202,190,181,178,190,201,208,220,223,221,213,210,210,210,206,202,192,186,185,187,190,185,179,178,180,184,192,195,204,213,217,222,224,216,209,201,190,191,205,215,224,237,241,242,243,241,238,236,236,241,245,243,241,246,256,263,270,285,292,291,285,282,275,265,255,243,234,249,270,297,324,342,356,365,375,388,403,421,438,454,467,471,469,469,473,475,472,451,419,391,401,436,457,467,465,457,437,410,400,413,409,396,394,393,390,381,381,394,418,433,433,429,417,395,369,337,311,287,274,261,246,231,232,234,226,217,212,205,201,201,197,191,200,210,213,213,210,209,204,202,207,211,213,213,220,234,245,253,252,247,245,248,255,256,252,260,260,252,252,277,286,277,267,262,268,276,287,300,313,323,332,344,355,356,359,362,370,374,368,365,367,367,367,362,358,361,370,381,384,382,379,381,383,386,384,380
0,0,0,0,0,0,0,0,0,0,0,0,0,0,0,0,0,0,0,0,0,0,0,0,0,0,0,0,0,0,0,0,0,0,0,0,0,0,0,0,0,0,0,0,0,0,0,0,0,0,0,0,0,0,0,0,0,0,0,0,0,0,0,0,0,0,0,0,0,0,0,0,0,0,0,0,0,0,0,0,0,0,0,0,0,0,0,0,0,0,0,0,0,0,0,0,0,0,0,0,0,0,0,0,0,0,0,0,0,0,0,0,0,0,0,0,0,0,0,0,0,0,0,0,0,0,0,0,0,0,0,0,0,0,0,0,0,0,0,0,0,0,0,0,0,0,0,0,0,0,0,0,0,0,0,0,0,0,0,0,0,0,0,0,0,0,0,0,0,0,0,0,0,0,0,0,0,0,0,0,0,0,0,0,0,0,0,0,0,0,0,0,0,0,0,0,0,0,0,0,0,0,0,0,0,0,0,0,0,0,0,0,0,0,0,0,0,0,0,0,0,0,0,0,0,0,0,0,0,0,0,0,0,0,0,0,0,0,0,0,0,0,0,0,0,0,0,0,0,0,0,0,0,0,0,0,0,0,0,0,0,0,0,0,0,0,0,0,0,0,0,0,0,0,0,0,0,0,0,0,0,0,0,0,0,0,0,0,0,0,0,0,0,0,0,0,0,0,0,0,0,0,0,0,0,0,0,0,0,0,0,0,0,0,0,0,0,0,0,0,0,0,0,0,0,0,0,0,0,0,0,0,0,0,0,0,0,0,0,0,0,0,0,0,0,0,0,0,0,0,0,0,0,0,0,0,0,0,0,0,0,0,0,0,0,0,0,0,0,0,0,0,0,0,0,0,0,0,0,0,2,3,16,27,41,50,59,66,72,77,80,78,74,73,69,68,66,72,71,71,75,73,66,60,48,37,33,40,46,48,47,46,46,51,54,52,51,54,67,73,79,82,89,88,84,80,68,56,59,70,90,102,101,89,82,93,105,100,89,89,103,105,90,83,96,106,119,125,119,123,116,122,124,124,129,137,146,141,143,152,157,162,171,176,179,177,179,190,185,175,167,154,149,141,124,120,132,131,114,88,62,42,28,22,23,22,22,22,23,24,26,27,27,28,30,28,28,32,37,44,48,55,61,64,64,65,64,66,67,62,57,51,42,39,43,43,48,59,63,68,74,76,80,85,88,91,95,95,106,114,119,120,125,122,118,113,109,114,114,109,114,109,105,106,112,117,116,120,127,135,143,149,154,161,163,167,171,177,186,196,202,207,218,221,222,220,219,223,228,230,232,240,247,257,268,274,281,291,302,314,322,328,337,346,355,365,374,382,392,402,417,437,457,481,503,520,539,562,585,603,618,617,603,608,609,608,604,608,613,618,620,620,620,613,599,581,555,540,544,559,579,585,586,580,564,543,526,508,488,485,489,487,467,445,431,414,400,402,406,410,413,410,408,397,396,394,394,397,399,399,403,407,418,433,441,434,425,429,427,412,401,383,370,361,354,352,349,353,359,361,365,365,366,371,378,386,392,395,393,390,388,391,391,392,394,391,392,393,393,386,377,368,370,377,384,390,400,414,417,420,421,426,441,465,478,488,500,518,536,546,549,551,563,583,610,628,623,598,573,550,533,540,558,560,555,557,558,572,586,597,601,604,606,601,591,578,567,558,548,537,526,514,506,501,498,494,487,478,467,455,443,430,417,408,407,407,397,381,373,368,353,337,325,317,309,299,287,277,272,281,300,316,329,338,347,349,346,345,341,336,329,329,333,326,316,306,301,295,287,284,280,275,286,297,291,276,271,265,256,243,228,214,209,201,194,186,174,166,163,159,155,153,153,151,151,153,156,161,162,153,145,146,150,144,141,143,147,153,160,169,180,197,212,215,205,196,189,186,193,205,213,208,203,198,190,191,191,191,191,181,173,174,179,182,175,164,164,169,174,182,190,203,208,201,199,203,207,209,206,190,182,194,205,211,222,226,227,232,230,224,225,230,238,241,237,233,235,240,245,258,267,274,275,272,266,260,246,237,224,228,248,272,298,328,345,341,341,352,369,392,428,457,462,466,468,466,457,453,461,457,430,403,377,376,399,423,448,461,464,458,430,405,390,385,378,371,372,373,370,373,390,416,427,424,410,395,376,346,319,298,272,246,238,227,215,215,213,206,203,198,191,188,188,186,192,209,220,227,229,223,217,211,207,202,202,204,202,207,225,240,240,238,234,229,229,230,229,228,227,227,229,232,243,254,254,247,249,259,273,279,281,289,296,306,320,334,340,343,347,350,349,344,347,359,360,365,374,375,375,375,383,390,393,390,389,393,396,398,395
0,0,0,0,0,0,0,0,0,0,0,0,0,0,0,0,0,0,0,0,0,0,0,0,0,0,0,0,0,0,0,0,0,0,0,0,0,0,0,0,0,0,0,0,0,0,0,0,0,0,0,0,0,0,0,0,0,0,0,0,0,0,0,0,0,0,0,0,0,0,0,0,0,0,0,0,0,0,0,0,0,0,0,0,0,0,0,0,0,0,0,0,0,0,0,0,0,0,0,0,0,0,0,0,0,0,0,0,0,0,0,0,0,0,0,0,0,0,0,0,0,0,0,0,0,0,0,0,0,0,0,0,0,0,0,0,0,0,0,0,0,0,0,0,0,0,0,0,0,0,0,0,0,0,0,0,0,0,0,0,0,0,0,0,0,0,0,0,0,0,0,0,0,0,0,0,0,0,0,0,0,0,0,0,0,0,0,0,0,0,0,0,0,0,0,0,0,0,0,0,0,0,0,0,0,0,0,0,0,0,0,0,0,0,0,0,0,0,0,0,0,0,0,0,0,0,0,0,0,0,0,0,0,0,0,0,0,0,0,0,0,0,0,0,0,0,0,0,0,0,0,0,0,0,0,0,0,0,0,0,0,0,0,0,0,0,0,0,0,0,0,0,0,0,0,0,0,0,0,0,0,0,0,0,0,0,0,0,0,0,0,0,0,0,0,0,0,0,0,0,0,0,0,0,0,0,0,0,0,0,0,0,0,0,0,0,0,0,0,0,0,0,0,0,0,0,0,0,0,0,0,0,0,0,0,0,0,0,0,0,0,0,0,0,0,0,0,0,0,0,0,0,0,0,0,0,0,0,0,0,0,0,0,0,0,0,0,0,0,0,0,0,0,0,0,0,0,0,6,15,18,15,18,29,42,52,62,68,73,81,85,86,85,80,73,70,74,81,83,80,81,80,73,65,51,39,35,42,47,54,58,60,61,63,63,69,71,62,69,79,89,91,94,102,100,94,88,71,64,70,85,100,107,101,88,87,100,108,99,93,105,117,107,93,94,112,126,130,131,137,132,135,131,136,137,141,152,154,154,160,159,157,172,183,183,177,173,178,173,151,140,126,117,117,103,97,103,103,92,73,50,29,20,24,25,23,21,22,23,23,23,24,24,27,31,28,28,29,31,32,34,37,45,55,61,65,66,68,69,70,69,64,57,50,44,44,45,47,53,60,64,67,72,76,74,74,78,84,94,103,115,126,135,139,138,133,128,129,138,140,134,124,118,112,107,110,123,136,147,158,164,170,176,182,185,186,192,198,202,210,214,214,212,208,210,201,199,200,207,213,222,232,244,255,265,270,279,292,304,310,319,327,335,347,357,364,370,378,389,401,414,438,458,468,474,489,513,544,567,581,595,591,588,602,616,626,625,622,628,635,641,639,635,624,599,573,555,558,571,588,608,615,610,598,578,558,539,519,507,503,496,482,468,463,461,445,420,402,389,385,391,396,398,395,395,393,387,386,387,392,397,397,403,414,410,406,407,415,414,405,399,390,373,352,337,326,328,339,342,349,357,356,354,364,373,374,377,379,379,377,373,372,373,377,382,377,373,376,379,374,367,367,371,377,384,392,402,415,423,431,436,439,450,477,505,529,545,561,579,588,580,571,577,584,594,604,609,609,595,576,553,551,566,575,572,570,574,585,596,607,612,611,604,595,582,567,556,547,537,529,518,503,491,484,481,477,471,467,457,446,435,423,409,396,389,390,384,371,362,354,344,334,325,315,304,292,280,268,261,269,289,307,317,326,327,326,325,323,320,321,316,315,321,315,305,299,292,283,274,270,263,264,275,279,276,270,262,253,249,236,220,204,197,191,190,183,175,165,159,161,163,161,157,152,149,148,149,155,161,158,150,141,139,138,142,149,158,164,168,175,184,195,207,213,216,214,208,199,196,203,210,202,189,179,171,174,175,173,172,167,159,160,164,167,161,151,153,158,167,175,182,189,191,181,180,188,191,201,204,194,178,179,188,195,203,207,211,215,213,207,212,220,223,222,216,212,213,221,235,248,252,258,263,261,256,243,231,215,211,227,250,272,298,317,318,311,320,341,369,394,428,458,465,467,468,464,444,426,426,431,416,389,365,359,371,387,407,426,438,445,443,433,417,387,359,353,353,356,355,365,391,409,416,415,402,377,346,319,301,285,257,235,216,206,199,202,197,188,183,183,183,181,182,188,200,214,228,234,238,231,223,220,224,223,219,216,214,211,213,221,219,219,219,216,216,219,224,228,234,246,245,245,242,236,234,234,238,242,251,263,265,267,275,283,294,306,316,324,333,339,336,331,338,345,346,356,370,376,383,387,391,396,403,405,405,407,410,412,413
0,0,0,0,0,0,0,0,0,0,0,0,0,0,0,0,0,0,0,0,0,0,0,0,0,0,0,0,0,0,0,0,0,0,0,0,0,0,0,0,0,0,0,0,0,0,0,0,0,0,0,0,0,0,0,0,0,0,0,0,0,0,0,0,0,0,0,0,0,0,0,0,0,0,0,0,0,0,0,0,0,0,0,0,0,0,0,0,0,0,0,0,0,0,0,0,0,0,0,0,0,0,0,0,0,0,0,0,0,0,0,0,0,0,0,0,0,0,0,0,0,0,0,0,0,0,0,0,0,0,0,0,0,0,0,0,0,0,0,0,0,0,0,0,0,0,0,0,0,0,0,0,0,0,0,0,0,0,0,0,0,0,0,0,0,0,0,0,0,0,0,0,0,0,0,0,0,0,0,0,0,0,0,0,0,0,0,0,0,0,0,0,0,0,0,0,0,0,0,0,0,0,0,0,0,0,0,0,0,0,0,0,0,0,0,0,0,0,0,0,0,0,0,0,0,0,0,0,0,0,0,0,0,0,0,0,0,0,0,0,0,0,0,0,0,0,0,0,0,0,0,0,0,0,0,0,0,0,0,0,0,0,0,0,0,0,0,0,0,0,0,0,0,0,0,0,0,0,0,0,0,0,0,0,0,0,0,0,0,0,0,0,0,0,0,0,0,0,0,0,0,0,0,0,0,0,0,0,0,0,0,0,0,0,0,0,0,0,0,0,0,0,0,0,0,0,0,0,0,0,0,0,0,0,0,0,0,0,0,0,0,0,0,0,0,0,0,0,0,0,0,0,0,0,0,0,0,0,0,0,0,0,0,0,0,0,0,0,0,0,0,0,0,0,0,0,0,3,26,42,44,40,36,29,42,55,66,73,77,83,87,89,90,85,80,75,79,84,89,90,90,88,79,64,51,41,40,46,49,51,62,71,75,76,70,76,79,67,70,83,100,103,104,110,111,101,91,75,65,74,87,99,112,112,100,91,97,110,110,103,103,117,117,105,95,107,131,142,140,143,141,142,142,145,150,153,157,164,166,170,163,149,156,174,169,161,147,159,151,132,112,101,90,78,75,69,70,65,58,50,39,24,22,27,27,23,23,23,23,24,23,23,24,27,28,27,28,30,33,31,31,32,36,43,49,55,62,67,70,71,73,76,74,66,55,48,45,43,45,47,49,53,59,62,66,70,76,87,97,107,115,124,136,145,149,148,145,141,144,149,155,154,144,139,128,120,120,131,144,154,158,163,168,173,180,182,188,191,189,192,193,192,194,191,188,183,189,191,198,208,220,228,240,251,259,266,279,290,300,305,314,324,333,342,351,358,363,374,383,397,424,459,481,496,504,503,507,524,544,563,569,576,591,613,631,644,648,643,643,647,651,643,631,618,592,577,578,581,592,609,627,633,626,608,586,567,549,530,521,512,503,493,485,487,493,477,451,429,407,386,370,371,379,384,387,385,379,375,378,384,388,387,384,386,390,392,394,400,401,394,385,381,375,363,342,322,309,315,318,327,338,342,342,352,358,358,361,367,367,362,358,358,357,361,365,364,357,357,358,355,351,355,362,371,380,388,397,409,421,437,448,449,454,481,513,542,566,582,602,609,601,594,602,604,599,602,609,623,619,593,572,565,574,590,595,593,595,600,607,613,615,610,601,589,575,562,550,539,526,513,503,492,479,467,462,461,458,452,446,439,429,415,400,385,375,371,369,361,348,339,328,319,315,312,303,290,279,268,257,260,277,290,298,308,309,303,302,301,302,300,295,297,304,304,298,291,281,272,261,251,248,256,262,254,249,256,257,245,232,226,218,205,193,183,179,174,171,166,167,175,182,177,171,165,153,145,146,153,165,160,152,145,139,139,143,152,162,175,179,180,182,184,194,204,207,209,213,213,213,214,217,211,194,179,168,160,155,158,155,151,145,144,146,147,144,140,144,154,160,167,173,176,174,162,166,177,184,193,199,200,184,172,172,178,182,187,197,204,198,189,199,207,208,204,197,195,198,214,230,240,237,239,246,243,237,227,217,206,207,227,246,267,282,289,285,293,318,345,371,391,407,435,461,469,472,465,439,415,398,389,373,362,350,351,361,371,377,392,417,431,435,432,420,388,351,336,335,338,339,365,390,399,404,407,397,366,328,302,285,268,244,228,206,191,187,187,181,178,177,181,182,190,197,211,223,221,233,246,250,245,239,237,244,250,248,240,231,224,231,234,230,232,229,222,220,227,239,253,269,283,288,281,270,259,247,240,238,237,241,244,246,246,250,256,264,271,278,293,309,315,320,318,320,321,327,334,338,347,361,381,392,397,403,413,418,423,423,426,427
0,0,0,0,0,0,0,0,0,0,0,0,0,0,0,0,0,0,0,0,0,0,0,0,0,0,0,0,0,0,0,0,0,0,0,0,0,0,0,0,0,0,0,0,0,0,0,0,0,0,0,0,0,0,0,0,0,0,0,0,0,0,0,0,0,0,0,0,0,0,0,0,0,0,0,0,0,0,0,0,0,0,0,0,0,0,0,0,0,0,0,0,0,0,0,0,0,0,0,0,0,0,0,0,0,0,0,0,0,0,0,0,0,0,0,0,0,0,0,0,0,0,0,0,0,0,0,0,0,0,0,0,0,0,0,0,0,0,0,0,0,0,0,0,0,0,0,0,0,0,0,0,0,0,0,0,0,0,0,0,0,0,0,0,0,0,0,0,0,0,0,0,0,0,0,0,0,0,0,0,0,0,0,0,0,0,0,0,0,0,0,0,0,0,0,0,0,0,0,0,0,0,0,0,0,0,0,0,0,0,0,0,0,0,0,0,0,0,0,0,0,0,0,0,0,0,0,0,0,0,0,0,0,0,0,0,0,0,0,0,0,0,0,0,0,0,0,0,0,0,0,0,0,0,0,0,0,0,0,0,0,0,0,0,0,0,0,0,0,0,0,0,0,0,0,0,0,0,0,0,0,0,0,0,0,0,0,0,0,0,0,0,0,0,0,0,0,0,0,0,0,0,0,0,0,0,0,0,0,0,0,0,0,0,0,0,0,0,0,0,0,0,0,0,0,0,0,0,0,0,0,0,0,0,0,0,0,0,0,0,0,0,0,0,0,0,0,0,0,0,0,0,0,0,0,0,0,0,0,0,0,0,0,0,0,0,0,0,0,0,0,0,0,0,0,0,0,5,27,43,57,64,57,37,34,56,69,76,86,89,92,94,96,94,86,77,80,89,94,97,93,89,83,67,53,47,52,62,62,57,61,74,82,89,84,83,94,88,72,76,93,108,110,114,112,100,91,75,67,74,87,101,116,119,111,101,100,110,118,116,109,121,130,123,117,107,115,134,146,150,151,151,152,155,157,158,162,167,168,166,163,144,133,146,142,135,118,117,116,108,98,91,83,75,64,54,47,48,43,42,30,20,22,26,24,23,23,28,27,25,23,23,26,27,27,28,29,31,34,36,38,39,37,36,39,43,49,55,65,71,72,76,78,77,67,57,50,47,47,47,47,54,64,69,72,77,86,97,106,116,122,126,130,134,140,144,146,150,156,159,162,167,167,161,151,142,133,127,126,130,133,135,141,146,153,154,163,170,171,169,170,174,176,178,178,185,195,202,204,209,214,222,235,248,258,267,276,287,296,303,312,322,337,355,364,365,372,379,397,424,449,477,495,514,532,535,538,545,549,552,566,584,600,617,633,647,652,649,642,636,642,636,618,604,593,605,616,609,617,632,639,635,625,606,585,563,545,535,524,511,503,493,482,477,478,471,454,435,413,389,371,360,358,362,367,370,371,374,375,374,375,373,373,374,377,381,385,384,382,380,373,365,360,350,335,319,304,296,302,311,319,324,326,329,342,346,352,354,351,344,341,345,347,347,348,346,339,335,330,330,338,354,368,374,378,385,392,403,419,429,444,449,458,478,499,522,542,559,577,583,588,596,597,588,581,593,614,638,636,609,602,595,592,609,617,620,616,610,610,608,607,604,597,586,576,562,548,536,520,508,493,477,464,450,440,438,439,436,432,422,414,406,396,381,367,360,357,352,339,323,313,307,300,296,289,277,269,261,249,247,258,268,277,288,295,286,280,281,286,284,280,280,291,296,294,290,279,267,255,246,237,236,238,234,233,239,244,240,227,215,211,205,196,188,182,178,173,173,176,181,179,171,170,167,156,143,143,151,162,160,152,142,137,138,150,161,169,172,169,167,169,174,184,189,189,192,201,212,213,211,213,209,203,196,184,171,162,157,152,149,146,142,140,137,133,134,140,149,155,160,166,166,159,150,157,166,177,187,196,203,199,184,169,162,163,171,181,187,182,175,182,192,194,189,183,188,204,219,231,233,220,221,232,228,221,207,199,198,204,217,229,239,249,259,272,294,316,333,355,377,397,418,444,464,465,457,431,408,378,356,348,343,332,335,345,351,358,366,382,402,417,419,410,381,341,316,315,318,327,364,390,391,391,393,387,354,321,293,271,249,231,211,187,178,180,177,178,179,185,194,197,206,221,242,245,237,243,258,263,259,255,260,269,271,264,251,235,231,245,253,254,250,237,229,230,237,248,259,271,286,304,302,289,280,269,258,258,253,256,253,252,249,251,254,249,251,251,257,269,279,289,292,296,300,303,312,323,328,334,348,364,374,377,387,403,412,413,420,426
0,0,0,0,0,0,0,0,0,0,0,0,0,0,0,0,0,0,0,0,0,0,0,0,0,0,0,0,0,0,0,0,0,0,0,0,0,0,0,0,0,0,0,0,0,0,0,0,0,0,0,0,0,0,0,0,0,0,0,0,0,0,0,0,0,0,0,0,0,0,0,0,0,0,0,0,0,0,0,0,0,0,0,0,0,0,0,0,0,0,0,0,0,0,0,0,0,0,0,0,0,0,0,0,0,0,0,0,0,0,0,0,0,0,0,0,0,0,0,0,0,0,0,0,0,0,0,0,0,0,0,0,0,0,0,0,0,0,0,0,0,0,0,0,0,0,0,0,0,0,0,0,0,0,0,0,0,0,0,0,0,0,0,0,0,0,0,0,0,0,0,0,0,0,0,0,0,0,0,0,0,0,0,0,0,0,0,0,0,0,0,0,0,0,0,0,0,0,0,0,0,0,0,0,0,0,0,0,0,0,0,0,0,0,0,0,0,0,0,0,0,0,0,0,0,0,0,0,0,0,0,0,0,0,0,0,0,0,0,0,0,0,0,0,0,0,0,0,0,0,0,0,0,0,0,0,0,0,0,0,0,0,0,0,0,0,0,0,0,0,0,0,0,0,0,0,0,0,0,0,0,0,0,0,0,0,0,0,0,0,0,0,0,0,0,0,0,0,0,0,0,0,0,0,0,0,0,0,0,0,0,0,0,0,0,0,0,0,0,0,0,0,0,0,0,0,0,0,0,0,0,0,0,0,0,0,0,0,0,0,0,0,0,0,0,0,0,0,0,0,0,0,0,0,0,0,0,0,0,0,0,0,0,0,0,0,0,0,0,0,0,0,0,0,0,0,1,11,33,47,56,68,67,53,36,46,60,73,88,93,96,97,100,99,92,84,87,95,99,100,96,90,79,64,55,61,71,77,80,77,71,81,94,104,101,93,95,104,89,82,85,103,113,120,119,110,99,86,74,75,87,102,115,125,126,116,106,109,123,127,119,124,136,140,135,124,123,128,135,140,147,157,161,159,151,144,143,146,143,140,138,133,116,116,117,106,90,82,87,90,89,83,68,59,55,46,36,35,29,24,23,22,21,23,25,25,24,28,30,25,25,23,24,26,26,26,27,31,39,43,49,50,49,47,47,45,45,47,52,64,71,76,79,80,77,71,63,59,51,46,47,50,59,69,79,82,90,98,108,114,118,118,119,122,122,125,133,142,152,158,160,165,166,162,162,163,153,146,142,138,140,145,150,148,151,153,153,155,158,163,171,177,182,185,190,197,201,209,214,219,225,230,236,243,254,264,276,287,296,305,314,329,347,368,374,374,380,392,410,432,450,467,482,497,512,528,552,574,581,580,584,590,610,628,632,636,634,628,633,626,621,618,611,608,605,616,632,634,636,637,637,627,613,598,581,565,548,534,523,512,500,488,477,465,452,441,432,419,403,392,376,364,352,343,340,349,362,375,373,365,363,361,360,360,366,371,372,374,370,365,355,345,337,333,323,309,296,287,287,296,297,299,307,315,323,334,340,340,339,331,328,332,335,333,334,332,322,313,310,321,340,361,377,387,394,400,404,410,421,432,439,444,451,462,480,497,515,539,555,551,547,555,563,561,572,589,614,640,645,628,622,613,610,618,618,626,621,607,599,595,592,593,593,586,576,562,549,534,520,510,494,476,461,444,430,422,418,416,416,408,397,391,382,371,360,352,349,345,332,312,301,296,289,282,273,261,253,244,237,240,248,252,258,270,281,274,268,267,276,278,268,268,279,285,285,284,283,272,260,254,236,220,217,220,224,227,237,236,230,219,203,198,197,193,186,182,176,174,171,169,162,157,154,153,147,141,141,148,157,156,146,139,134,141,153,164,168,162,155,151,158,170,175,174,172,179,191,197,192,193,194,197,198,201,199,191,184,179,176,172,169,166,158,146,133,129,135,140,145,154,154,150,144,141,150,164,174,184,197,208,213,203,187,168,156,159,167,169,166,161,164,168,172,175,183,195,211,222,223,215,202,204,216,211,201,192,189,198,207,220,232,240,248,259,269,284,304,326,354,375,390,394,414,446,457,446,426,404,382,355,332,322,320,324,333,334,341,350,357,375,404,410,407,380,342,310,297,302,327,358,368,371,374,377,368,336,305,275,253,235,219,198,179,175,178,178,183,191,202,214,215,214,232,254,259,255,256,265,275,276,279,286,289,281,266,250,241,247,258,265,265,255,240,230,237,248,253,258,268,281,296,305,300,290,275,270,273,270,272,274,273,267,273,273,265,261,254,255,255,257,268,272,278,288,292,297,306,310,318,326,338,344,351,361,380,389,397,404,409
0,0,0,0,0,0,0,0,0,0,0,0,0,0,0,0,0,0,0,0,0,0,0,0,0,0,0,0,0,0,0,0,0,0,0,0,0,0,0,0,0,0,0,0,0,0,0,0,0,0,0,0,0,0,0,0,0,0,0,0,0,0,0,0,0,0,0,0,0,0,0,0,0,0,0,0,0,0,0,0,0,0,0,0,0,0,0,0,0,0,0,0,0,0,0,0,0,0,0,0,0,0,0,0,0,0,0,0,0,0,0,0,0,0,0,0,0,0,0,0,0,0,0,0,0,0,0,0,0,0,0,0,0,0,0,0,0,0,0,0,0,0,0,0,0,0,0,0,0,0,0,0,0,0,0,0,0,0,0,0,0,0,0,0,0,0,0,0,0,0,0,0,0,0,0,0,0,0,0,0,0,0,0,0,0,0,0,0,0,0,0,0,0,0,0,0,0,0,0,0,0,0,0,0,0,0,0,0,0,0,0,0,0,0,0,0,0,0,0,0,0,0,0,0,0,0,0,0,0,0,0,0,0,0,0,0,0,0,0,0,0,0,0,0,0,0,0,0,0,0,0,0,0,0,0,0,0,0,0,0,0,0,0,0,0,0,0,0,0,0,0,0,0,0,0,0,0,0,0,0,0,0,0,0,0,0,0,0,0,0,0,0,0,0,0,0,0,0,0,0,0,0,0,0,0,0,0,0,0,0,0,0,0,0,0,0,0,0,0,0,0,0,0,0,0,0,0,0,0,0,0,0,0,0,0,0,0,0,0,0,0,0,0,0,0,0,0,0,0,0,0,0,0,0,0,0,0,0,0,0,0,0,0,0,0,0,0,0,0,0,0,0,0,0,0,1,15,36,52,63,71,75,75,69,53,43,48,62,73,82,88,96,103,102,97,90,89,97,102,106,101,97,86,65,53,64,77,85,90,92,86,91,112,120,110,103,100,110,105,99,88,96,114,125,129,123,111,97,80,69,83,97,108,122,128,126,117,113,120,126,135,137,137,138,142,139,142,142,141,142,147,158,161,156,148,143,142,137,125,118,118,112,97,99,102,95,83,70,66,73,71,69,58,50,42,35,31,29,24,21,21,23,22,23,23,26,27,34,35,32,26,24,26,27,28,28,29,30,35,41,45,50,56,60,63,64,63,57,55,56,63,72,78,80,79,77,72,66,55,47,47,48,55,64,73,80,88,94,101,107,108,107,104,107,112,119,125,132,140,143,147,153,156,161,170,178,174,172,170,165,164,172,173,172,169,167,168,167,167,175,182,190,196,204,208,222,228,231,229,229,237,249,261,264,265,272,280,292,303,311,320,329,340,353,366,372,381,395,410,418,429,442,456,473,499,521,540,565,586,603,616,613,613,623,627,625,614,606,614,615,615,613,619,627,625,631,645,661,660,653,643,630,616,597,580,562,546,536,528,515,501,487,474,459,447,438,428,418,406,401,391,376,358,340,328,329,343,351,350,346,344,345,347,351,354,352,358,361,364,359,342,327,315,312,308,299,287,281,274,278,279,282,291,300,309,316,323,325,326,318,312,315,316,313,309,304,294,293,302,319,342,360,373,380,388,401,413,416,425,435,446,449,447,451,462,481,494,509,515,510,518,532,541,546,555,574,596,618,633,622,605,597,599,604,601,603,602,593,581,577,577,580,585,584,576,566,552,536,524,512,499,484,467,455,442,431,420,406,396,390,384,374,364,355,345,336,332,329,316,296,285,280,277,271,263,264,260,255,245,237,239,242,251,260,265,262,253,251,260,266,257,257,269,277,274,274,279,281,266,251,235,215,209,207,214,225,239,235,227,221,206,195,189,188,184,177,168,165,159,155,150,146,144,142,140,139,140,140,148,156,151,142,136,138,146,153,153,150,145,147,158,165,164,161,163,174,184,186,175,172,177,181,186,190,196,200,201,198,192,191,188,181,170,155,142,129,127,132,140,143,139,136,137,147,156,166,177,186,196,207,214,211,198,179,162,151,152,153,153,160,167,174,180,188,200,208,213,212,204,196,185,193,202,198,186,183,194,206,217,231,246,255,267,275,287,303,319,332,346,357,353,350,373,409,447,452,443,426,398,362,333,316,306,305,309,320,327,329,337,352,393,399,391,373,337,305,284,294,327,347,357,366,367,365,355,318,285,261,243,221,207,189,177,177,185,190,201,214,227,233,232,232,243,255,265,267,268,277,286,294,303,303,293,275,260,255,255,269,278,280,273,260,242,234,248,270,271,265,268,273,283,296,304,299,281,282,291,291,290,292,287,286,289,286,281,277,270,273,278,271,261,261,266,274,280,285,291,300,311,317,321,328,335,344,357,371,384,392,397
0,0,0,0,0,0,0,0,0,0,0,0,0,0,0,0,0,0,0,0,0,0,0,0,0,0,0,0,0,0,0,0,0,0,0,0,0,0,0,0,0,0,0,0,0,0,0,0,0,0,0,0,0,0,0,0,0,0,0,0,0,0,0,0,0,0,0,0,0,0,0,0,0,0,0,0,0,0,0,0,0,0,0,0,0,0,0,0,0,0,0,0,0,0,0,0,0,0,0,0,0,0,0,0,0,0,0,0,0,0,0,0,0,0,0,0,0,0,0,0,0,0,0,0,0,0,0,0,0,0,0,0,0,0,0,0,0,0,0,0,0,0,0,0,0,0,0,0,0,0,0,0,0,0,0,0,0,0,0,0,0,0,0,0,0,0,0,0,0,0,0,0,0,0,0,0,0,0,0,0,0,0,0,0,0,0,0,0,0,0,0,0,0,0,0,0,0,0,0,0,0,0,0,0,0,0,0,0,0,0,0,0,0,0,0,0,0,0,0,0,0,0,0,0,0,0,0,0,0,0,0,0,0,0,0,0,0,0,0,0,0,0,0,0,0,0,0,0,0,0,0,0,0,0,0,0,0,0,0,0,0,0,0,0,0,0,0,0,0,0,0,0,0,0,0,0,0,0,0,0,0,0,0,0,0,0,0,0,0,0,0,0,0,0,0,0,0,0,0,0,0,0,0,0,0,0,0,0,0,0,0,0,0,0,0,0,0,0,0,0,0,0,0,0,0,0,0,0,0,0,0,0,0,0,0,0,0,0,0,0,0,0,0,0,0,0,0,0,0,0,0,0,0,0,0,0,0,0,0,0,0,0,0,0,0,0,0,0,0,0,0,0,0,0,0,2,22,49,59,66,75,80,82,82,73,60,47,54,62,70,81,93,98,100,102,96,92,96,104,105,101,98,87,65,58,69,80,92,99,100,100,98,109,120,120,115,115,126,120,108,98,94,103,120,132,129,116,102,88,81,77,91,102,118,131,135,130,126,120,125,135,147,148,147,149,148,154,155,152,149,148,155,161,154,151,151,145,139,128,121,109,94,88,92,88,75,76,73,62,59,58,54,42,37,30,29,26,26,23,22,22,23,24,23,23,26,32,44,50,43,40,33,27,26,29,29,32,37,42,51,55,58,63,71,82,93,87,76,72,71,70,69,76,82,84,83,81,70,62,56,50,49,49,55,59,67,77,83,92,97,99,94,93,100,110,117,123,127,128,128,134,138,143,156,168,188,196,198,202,197,189,185,184,187,185,184,186,190,186,186,195,207,218,225,233,246,250,254,257,253,252,262,274,282,285,286,289,298,311,320,328,339,347,358,371,379,393,414,436,435,446,462,480,494,515,540,561,580,598,614,628,628,622,617,616,608,598,586,589,602,618,626,636,649,653,656,665,670,668,657,645,631,616,599,576,555,544,535,525,515,502,489,475,459,447,439,433,427,420,415,404,389,370,352,336,322,322,331,335,336,337,335,337,336,338,338,346,354,363,365,351,334,314,302,292,285,276,272,263,256,259,270,275,283,294,298,304,306,310,306,298,293,297,295,284,280,273,285,305,323,343,352,362,377,386,396,406,414,422,431,442,449,452,461,473,484,496,502,502,507,529,546,559,561,558,564,576,588,595,592,578,567,567,577,586,583,581,574,560,559,564,570,575,577,576,572,562,549,536,526,512,496,482,473,460,446,437,422,408,399,388,376,364,354,348,339,325,316,304,301,301,291,285,281,282,285,283,283,276,270,257,243,235,232,237,240,237,234,241,246,243,246,261,269,263,260,267,268,257,240,225,210,201,196,202,218,231,233,224,214,206,197,183,177,175,169,161,156,151,150,149,148,146,143,141,139,138,137,140,147,150,143,137,135,136,140,140,140,140,143,147,150,150,156,167,176,184,181,166,156,163,167,170,173,181,186,193,190,182,179,179,178,176,168,151,135,127,124,129,129,127,132,144,153,159,166,175,179,186,198,208,210,199,181,166,150,144,150,163,180,193,198,205,210,214,206,201,196,191,184,175,186,193,184,176,185,197,212,225,241,256,271,290,298,304,318,326,320,308,309,312,320,347,393,430,433,428,422,397,362,336,314,296,287,292,304,309,311,322,341,378,392,384,366,334,303,278,287,315,342,358,363,360,355,343,312,278,251,232,213,196,179,172,174,185,199,216,230,245,253,251,257,272,273,278,279,280,285,295,306,316,313,296,282,281,278,275,283,287,278,269,256,242,238,260,280,289,285,284,282,286,296,304,302,293,294,306,312,307,305,304,301,296,292,291,293,293,293,296,297,286,268,262,265,267,273,278,288,303,307,307,313,323,336,343,354,366,375,378
0,0,0,0,0,0,0,0,0,0,0,0,0,0,0,0,0,0,0,0,0,0,0,0,0,0,0,0,0,0,0,0,0,0,0,0,0,0,0,0,0,0,0,0,0,0,0,0,0,0,0,0,0,0,0,0,0,0,0,0,0,0,0,0,0,0,0,0,0,0,0,0,0,0,0,0,0,0,0,0,0,0,0,0,0,0,0,0,0,0,0,0,0,0,0,0,0,0,0,0,0,0,0,0,0,0,0,0,0,0,0,0,0,0,0,0,0,0,0,0,0,0,0,0,0,0,0,0,0,0,0,0,0,0,0,0,0,0,0,0,0,0,0,0,0,0,0,0,0,0,0,0,0,0,0,0,0,0,0,0,0,0,0,0,0,0,0,0,0,0,0,0,0,0,0,0,0,0,0,0,0,0,0,0,0,0,0,0,0,0,0,0,0,0,0,0,0,0,0,0,0,0,0,0,0,0,0,0,0,0,0,0,0,0,0,0,0,0,0,0,0,0,0,0,0,0,0,0,0,0,0,0,0,0,0,0,0,0,0,0,0,0,0,0,0,0,0,0,0,0,0,0,0,0,0,0,0,0,0,0,0,0,0,0,0,0,0,0,0,0,0,0,0,0,0,0,0,0,0,0,0,0,0,0,0,0,0,0,0,0,0,0,0,0,0,0,0,0,0,0,0,0,0,0,0,0,0,0,0,0,0,0,0,0,0,0,0,0,0,0,0,0,0,0,0,0,0,0,0,0,0,0,0,0,0,0,0,0,0,0,0,0,0,0,0,0,0,0,0,0,0,0,0,0,0,0,0,0,0,0,0,0,0,0,0,0,0,0,0,0,0,0,0,0,0,8,31,53,67,73,80,86,90,92,86,74,58,51,58,63,69,75,85,88,96,99,100,103,106,106,102,92,81,67,63,73,85,95,104,112,114,111,110,118,127,124,127,135,128,115,110,105,103,118,132,130,119,108,99,95,84,90,99,112,127,139,143,141,131,128,131,148,156,154,158,154,155,159,159,157,152,158,165,165,168,165,155,153,146,132,115,94,84,81,76,66,69,70,60,51,48,48,43,36,30,27,25,24,23,20,19,23,23,23,26,29,36,49,60,58,51,40,33,31,31,30,35,45,54,62,66,68,75,87,106,116,110,97,87,86,84,80,79,82,86,87,84,78,73,64,56,53,54,55,55,57,63,68,75,84,86,84,88,99,106,111,116,115,112,112,119,126,136,153,175,200,208,211,217,219,218,212,209,208,208,207,210,211,206,202,204,212,224,231,238,246,250,256,263,267,269,276,287,299,306,304,303,305,317,329,338,347,356,364,377,384,397,419,437,448,460,484,509,529,544,558,577,592,603,609,611,609,597,590,586,578,573,580,597,609,623,637,651,663,671,661,654,649,645,637,626,612,601,589,568,554,544,532,519,508,497,485,475,463,453,446,443,436,431,421,409,394,376,357,343,329,312,313,328,331,328,327,326,328,328,334,344,350,358,365,359,346,335,325,311,301,289,276,265,257,252,258,262,267,274,277,286,290,295,295,284,276,276,275,267,263,268,287,303,319,336,344,355,367,378,388,401,411,419,425,434,439,443,453,473,490,504,520,533,542,545,553,570,583,576,566,570,574,580,581,568,546,538,544,562,572,564,554,541,543,553,561,564,562,562,565,564,557,548,536,521,509,499,489,476,465,452,438,428,419,410,399,384,375,365,352,340,325,316,319,319,315,310,302,303,307,312,311,310,311,298,278,260,242,229,222,216,212,215,222,229,239,249,257,254,249,254,251,240,228,217,209,197,190,192,204,218,225,218,208,196,189,183,173,165,161,157,156,157,159,161,161,160,158,152,144,137,134,135,139,146,142,136,133,132,135,136,139,143,145,146,146,149,158,168,176,183,180,166,151,147,151,156,165,169,174,178,177,167,162,162,164,170,175,166,152,143,131,123,123,126,134,144,153,156,159,161,165,176,188,201,209,204,186,169,150,142,153,170,186,201,212,217,211,202,194,184,179,174,166,164,173,176,170,175,191,207,226,243,255,261,274,290,293,291,294,299,289,277,281,295,316,344,394,419,410,400,396,385,362,334,312,292,278,279,282,291,294,303,328,367,388,383,368,340,306,271,269,303,340,355,357,356,342,329,303,268,245,228,209,188,173,170,174,185,203,224,240,255,268,274,281,294,291,292,293,294,298,308,320,326,321,311,309,307,300,296,293,281,268,260,251,240,244,263,278,290,297,301,303,305,310,317,319,315,313,317,329,332,329,323,314,305,302,304,307,313,314,312,311,299,281,273,271,273,273,270,270,278,292,299,305,310,319,326,333,343,353,356
0,0,0,0,0,0,0,0,0,0,0,0,0,0,0,0,0,0,0,0,0,0,0,0,0,0,0,0,0,0,0,0,0,0,0,0,0,0,0,0,0,0,0,0,0,0,0,0,0,0,0,0,0,0,0,0,0,0,0,0,0,0,0,0,0,0,0,0,0,0,0,0,0,0,0,0,0,0,0,0,0,0,0,0,0,0,0,0,0,0,0,0,0,0,0,0,0,0,0,0,0,0,0,0,0,0,0,0,0,0,0,0,0,0,0,0,0,0,0,0,0,0,0,0,0,0,0,0,0,0,0,0,0,0,0,0,0,0,0,0,0,0,0,0,0,0,0,0,0,0,0,0,0,0,0,0,0,0,0,0,0,0,0,0,0,0,0,0,0,0,0,0,0,0,0,0,0,0,0,0,0,0,0,0,0,0,0,0,0,0,0,0,0,0,0,0,0,0,0,0,0,0,0,0,0,0,0,0,0,0,0,0,0,0,0,0,0,0,0,0,0,0,0,0,0,0,0,0,0,0,0,0,0,0,0,0,0,0,0,0,0,0,0,0,0,0,0,0,0,0,0,0,0,0,0,0,0,0,0,0,0,0,0,0,0,0,0,0,0,0,0,0,0,0,0,0,0,0,0,0,0,0,0,0,0,0,0,0,0,0,0,0,0,0,0,0,0,0,0,0,0,0,0,0,0,0,0,0,0,0,0,0,0,0,0,0,0,0,0,0,0,0,0,0,0,0,0,0,0,0,0,0,0,0,0,0,0,0,0,0,0,0,0,0,0,0,0,0,0,0,0,0,0,0,0,0,0,0,0,0,0,0,0,0,0,0,0,0,0,0,0,0,0,0,5,24,44,61,70,75,85,93,99,101,95,84,75,68,72,79,83,79,79,80,87,95,103,112,111,109,102,86,74,69,65,76,85,95,108,121,131,130,124,124,134,136,136,145,143,129,118,119,113,120,134,138,129,119,113,105,91,87,97,111,120,133,143,147,146,141,134,144,159,162,161,159,159,160,161,157,152,156,164,174,179,172,161,151,145,129,109,95,90,79,69,56,59,61,52,43,42,41,41,32,30,27,26,26,23,20,20,23,23,24,26,31,40,52,66,70,61,51,38,33,31,32,37,47,59,68,77,85,96,110,123,117,108,100,94,91,90,88,87,88,87,87,85,85,85,79,72,70,67,64,59,57,57,58,64,72,73,78,89,91,92,95,99,97,96,100,109,122,137,158,175,188,193,200,205,210,212,216,220,223,226,226,229,231,231,226,223,221,224,232,239,248,253,254,258,269,281,289,298,308,317,319,321,320,325,339,347,353,361,372,385,399,409,426,441,457,481,500,523,549,566,565,566,565,568,570,578,580,566,554,555,567,579,594,613,625,628,627,629,632,628,620,612,613,613,610,604,592,581,571,554,541,532,527,521,510,498,489,481,470,460,449,441,434,429,417,406,395,379,359,345,327,311,301,316,320,315,314,317,319,319,327,339,344,349,353,357,365,367,360,345,331,313,293,280,267,256,246,245,249,258,263,271,274,278,279,268,258,256,257,250,253,266,280,294,307,320,330,345,360,374,388,400,406,414,421,423,426,430,441,458,477,501,519,538,556,567,578,583,591,595,590,592,591,587,583,568,541,516,522,538,546,551,546,531,532,542,550,552,546,543,545,551,553,551,545,535,524,513,501,490,478,465,455,445,440,431,417,404,393,381,368,357,349,341,336,337,341,338,333,337,336,350,345,337,330,311,291,281,266,251,243,238,230,219,209,208,219,232,239,238,237,241,237,227,215,207,201,193,184,185,194,207,218,214,204,194,182,177,171,165,162,163,167,170,172,172,171,170,167,161,153,142,134,132,135,140,138,132,132,138,145,146,152,158,160,159,157,156,158,163,175,183,185,173,159,146,142,147,152,155,159,161,162,158,147,145,151,163,174,179,170,161,147,130,121,125,132,140,144,147,145,147,152,165,182,198,211,208,190,171,153,140,149,165,180,196,203,199,193,185,176,168,161,159,157,158,162,165,166,176,191,207,224,241,246,248,258,272,272,269,270,262,260,267,284,309,337,371,418,430,417,403,384,370,349,328,310,290,276,265,259,263,271,289,316,356,372,366,350,342,312,273,256,279,306,326,343,348,334,312,287,261,236,224,199,175,169,169,176,189,204,221,238,252,262,281,294,304,305,305,306,311,311,314,318,324,328,330,332,329,316,301,288,273,259,249,245,243,243,250,263,281,297,312,322,323,323,329,335,335,329,327,338,349,348,341,329,322,320,321,324,331,330,316,307,304,309,296,294,300,295,284,272,276,288,294,292,292,299,304,309,324,334,336
