989,957,916,888,856,814,790,797,837,878,919,922,887,838,794,755,748,780,816,833,815,768,705,681,658,647,674,693,693,692,677,675,694,708,717,726,740,756,761,741,713,694,675,657,640,624,606,589,569,549,554,577,598,620,624,592,557,517,483,449,425,420,415,408,406,414,411,386,352,332,326,328,331,331,341,338,334,329,322,325,345,363,366,368,385,404,405,392,367,335,315,300,283,271,255,249,249,254,274,302,333,324,296,277,289,315,330,338,340,358,375,385,396,392,380,339,309,294,294,282,262,278,305,303,292,278,262,256,243,232,228,225,236,256,292,324,368,402,414,423,425,417,397,358,319,283,256,240,225,215,220,235,251,237,215,222,262,279,276,264,252,228,213,212,236,277,308,353,391,394,378,380,387,393,412,427,443,469,492,520,549,585,618,626,611,586,570,569,583,592,605,588,534,464,406,379,347,305,263,232,221,236,246,279,351,428,460,456,478,482,457,427,433,468,478,497,518,515,496,461,443,448,461,451,431,420,411,375,327,298,313,352,378,387,388,414,436,444,453,463,470,484,489,485,486,494,506,508,495,488,492,507,537,553,553,548,549,543,533,527,530,539,538,540,543,541,552,584,622,660,685,688,696,729,756,803,866,932,1003,1056,1109,1157,1184,1176,1137,1089,1046,1032,1036,1049,1061,1062,1025,973,924,877,828,785,734,686,642,603,560,516,487,471,459,421,375,358,362,407,465,527,610,704,682,640,611,594,582,578,580,590,606,627,635,634,644,660,666,670,684,700,708,709,707,748,795,833,868,907,947,977,1010,1014,1003,986,970,963,961,943,928,927,928,922,916,905,891,878,860,834,816,804,789,767,742,716,694,663,626,616,650,686,719,765,791,816,821,833,854,892,884,865,872,894,895,895,942,967,951,939,930,930,948,962,981,1003,1039,1072,1105,1119,1139,1161,1182,1203,1218,1220,1222,1236,1248,1262,1282,1303,1315,1316,1312,1314,1330,1357,1384,1411,1418,1418,1428,1447,1463,1469,1481,1484,1461,1408,1361,1326,1293,1256,1227,1207,1189,1205,1231,1255,1278,1277,1239,1200,1186,1198,1219,1229,1230,1252,1261,1241,1222,1232,1255,1275,1309,1330,1337,1340,1343,1345,1341,1333,1314,1277,1237,1205,1174,1143,1117,1086,1046,1009,981,952,915,870,837,793,757,733,738,780,832,888,908,908,921,950,993,1025,1036,1051,1079,1097,1109,1130,1156,1175,1204,1215,1225,1240,1264,1304,1326,1330,1330,1331,1338,1349,1357,1357,1354,1369,1391,1410,1439,1462,1497,1525,1568,1607,1647,1664,1660,1648,1644,1653,1646,1618,1570,1525,1492,1462,1429,1392,1356,1363,1394,1417,1415,1395,1388,1384,1361,1328,1268,1225,1180,1134,1090,1059,1022,982,935,897,855,817,780,756,739,716,689,661,636,634,643,655,670,687,696,706,719,728,725,722,720,715,709,696,690,683,692,679,646,612,599,606,613,635,656,667,685,698,695,682,669,649,626,587,556,521,487,452,409,369,336,303,280,274,283,315,319,318,323,350,376,380,383,404,430,458,465,472,462,434,462,465,471,483,507,515,579,592,577,576,586,621,672,677,704,776,811,821,837,860,886,909,909,900,909,924,917,923,949,965,1000,1062,1110,1155,1215,1276,1358,1413,1469,1519,1551,1555,1542,1509,1468,1441,1409,1362,1316,1298,1294,1284,1262,1242,1209,1167,1124,1082,1039,1005,983,955,919,874,844,861,893,932,986,1040,1071,1110,1147,1194,1225,1234,1212,1192,1176,1161,1171,1197,1230,1259,1271,1268,1252,1229,1204,1171,1135,1103,1056,1019,983,944,913,876,850,816,791,764,737,710,687,685,688,694,707,707,708,712,704,696,696,686,693,704,717,709,690,675,661,645,632,616,601,585,571,563,557,551,539,509,476,434,403,376,357,348,355,357,346,326,291,255,247,266,269,264,256,254,252,250,260,277,279,256,253,268,294,330,347,352,365,366,344,326,320,303,297,283,276,283,308,345,396,450,486,498,499,491,477,464,477,494,513,530,529,507,473,458,494,540,581,610,647,678,692,691,702,715,734,753,769,777,795,820,835,827,800,804,834,861,876,843,797,774,795,847,872,862,831,795,769,749,740,752,788,827,858,888,923,950,969,971,954,933,948,1001,1049,1098,1144,1173,1177,1172,1175,1191,1196,1185,1190,1214,1250,1275,1301,1326,1352,1386,1413,1414,1407,1404,1394,1367,1341,1321,1340,1368,1395,1424,1453,1466,1450,1416,1383,1350,1323,1298,1279,1264,1249,1229,1200,1167,1127,1085,1058,1055,1042,1060,1096,1121,1145,1159,1168,1179,1194,1213,1245,1272,1289,1302,1313,1317,1292,1258,1226,1211,1208,1205,1202,1187,1169,1148,1113,1086,1084,1094,1100,1088,1068,1057,1067,1075,1087,1093,1093,1098,1099,1079,1051,1033,1012,999,1000,1004,992,974,973,973,964,947,906,860,810,775,745,713,676,634,598,557,527,491,465,449,436,427,424,423,419,419,415,395,365,346,310,267,236,247,276,297,304,314,341,368,353,313,284,281,305,346,398,450,496,532,562,596,629,670,730,772,792,791,810,824,824,822,848,886,906,909,907,923,950,982,1017,1043,1063,1078,1095,1089,1063,1041,1022,1000,979,960,936,921,897,876,859,839,817,788,764,742,718,695,680,669,677,684,678,656,627,600,576,564,551,537,531,526,507,483,466,469,471,461,438,419,414,428,428,408,382,376,376,367,361,343,325,308,290,271,249,229,211,202,207,222,233,242,253,275,294,313,317,311,321,353,378,374,359,345,337,325,313,292,264,235,203,188,202,194,191,214,244,269,298,329,360,381,379,367,356,339,324,313,319,341,363,387,414,440,470,502,515,516,518,525,529,523,507,488,473,454,441,422,418,423,418,407,397,388,374,364,353,342,335,333,336
940,913,878,846,802,762,746,756,787,824,848,857,850,809,769,744,699,709,745,771,773,737,694,652,611,592,616,640,645,648,637,645,666,679,698,720,738,747,749,742,732,722,710,696,686,678,661,632,594,557,529,534,555,577,591,578,549,521,484,446,415,389,375,371,379,377,349,318,294,277,274,271,281,286,285,284,281,275,275,282,307,331,335,332,342,343,345,348,338,318,300,284,270,262,252,248,253,264,286,323,358,356,337,305,288,287,291,295,298,308,317,337,362,380,377,352,342,323,316,291,269,279,297,324,338,320,298,282,252,247,237,230,232,237,241,257,310,356,366,366,366,368,375,354,317,277,243,223,227,248,284,318,316,276,232,211,219,230,228,219,212,211,224,227,249,310,361,403,451,459,448,454,462,453,462,470,498,528,560,584,612,622,604,577,555,538,517,507,522,538,570,566,503,424,365,326,297,269,233,217,248,294,336,370,408,446,481,505,519,524,501,471,453,473,508,531,551,550,524,501,499,503,502,478,461,445,405,366,334,298,303,322,336,347,368,403,413,414,427,430,438,460,463,457,455,465,475,467,459,454,458,472,488,489,487,489,490,494,495,501,504,507,516,526,538,557,585,616,654,712,757,758,745,754,786,829,868,922,978,1076,1155,1191,1199,1170,1124,1092,1083,1087,1097,1101,1088,1056,1009,961,910,861,816,769,714,655,608,559,508,464,433,421,400,378,359,352,381,419,469,498,535,577,594,565,543,532,526,534,544,551,565,589,595,599,611,623,622,626,637,655,660,654,673,740,787,836,891,916,948,981,980,951,931,921,907,902,901,889,882,893,894,889,885,876,865,852,834,811,796,787,778,760,737,720,706,686,658,629,623,655,691,727,775,820,855,871,888,920,926,925,943,961,948,943,969,973,957,945,937,933,945,964,995,1040,1075,1095,1106,1105,1102,1119,1151,1178,1198,1207,1212,1221,1228,1243,1262,1271,1268,1256,1251,1255,1274,1309,1338,1355,1371,1389,1413,1433,1453,1465,1474,1483,1477,1428,1385,1340,1303,1255,1227,1216,1214,1242,1275,1303,1316,1287,1237,1215,1219,1228,1249,1264,1262,1278,1277,1256,1238,1249,1273,1283,1301,1317,1315,1301,1291,1286,1281,1272,1250,1218,1182,1156,1133,1109,1088,1058,1028,998,963,932,902,868,835,794,756,737,730,751,806,867,906,938,965,999,1038,1072,1093,1106,1118,1124,1120,1116,1117,1122,1135,1140,1153,1174,1211,1252,1270,1269,1268,1273,1278,1282,1292,1302,1314,1332,1352,1374,1402,1424,1456,1493,1542,1581,1627,1659,1696,1710,1710,1703,1691,1660,1610,1573,1540,1503,1463,1432,1409,1419,1439,1458,1460,1443,1427,1398,1352,1307,1252,1206,1159,1121,1077,1037,1002,970,940,903,862,827,778,746,730,702,685,672,650,630,612,622,641,649,654,663,671,670,668,669,668,658,653,650,653,662,671,657,620,581,560,554,561,587,608,608,631,648,644,635,621,606,582,562,533,503,467,439,404,353,310,280,284,311,339,363,368,364,379,401,431,429,436,464,497,531,553,583,516,469,490,533,515,522,544,540,529,537,565,601,633,702,725,691,696,757,768,767,784,815,830,834,831,836,859,868,879,904,930,961,994,1053,1103,1157,1205,1248,1289,1348,1470,1503,1513,1546,1563,1540,1514,1484,1456,1414,1372,1353,1349,1335,1301,1269,1238,1200,1160,1112,1071,1047,1025,988,946,912,881,863,860,889,939,990,1031,1072,1111,1148,1187,1213,1218,1218,1210,1198,1186,1198,1235,1264,1284,1280,1260,1234,1199,1161,1124,1089,1056,1028,991,956,920,886,857,825,790,762,750,745,732,726,726,735,743,746,751,748,740,734,723,719,726,732,742,731,713,705,693,674,660,646,628,612,605,597,587,573,554,521,493,460,437,415,397,387,389,378,356,333,304,277,249,273,302,304,298,294,294,293,295,292,293,287,285,319,366,400,406,403,409,413,391,382,376,358,351,334,296,280,299,339,382,423,452,468,465,459,443,424,427,440,471,486,479,465,441,444,492,546,583,610,625,636,651,663,674,687,701,719,735,749,766,783,782,757,744,766,795,818,828,803,764,742,769,807,832,804,765,728,711,705,727,766,812,858,895,914,942,955,939,909,886,909,952,1010,1058,1101,1133,1134,1121,1112,1119,1133,1131,1122,1137,1169,1187,1209,1240,1280,1322,1370,1409,1433,1441,1442,1428,1400,1373,1349,1360,1375,1404,1441,1468,1465,1436,1404,1378,1359,1348,1335,1324,1307,1284,1256,1217,1173,1119,1090,1095,1096,1088,1091,1124,1164,1192,1206,1212,1223,1234,1246,1262,1285,1309,1324,1337,1339,1314,1286,1276,1277,1276,1265,1240,1229,1212,1185,1157,1148,1153,1163,1166,1152,1129,1115,1122,1128,1128,1121,1103,1082,1068,1040,1006,979,956,939,940,949,951,936,916,909,915,916,903,873,848,816,788,754,707,672,650,615,574,525,481,439,405,387,376,378,378,376,381,373,350,323,289,247,237,263,286,317,354,380,407,422,397,357,314,288,296,335,382,423,463,493,509,545,590,639,690,740,783,817,845,876,894,891,901,924,958,975,971,980,1001,1021,1039,1066,1081,1091,1100,1097,1075,1053,1033,1002,973,942,915,898,877,857,845,832,821,809,787,764,735,706,679,650,634,638,636,624,605,589,568,554,538,509,490,477,465,447,430,427,426,426,416,399,396,405,401,390,369,341,336,333,327,319,307,280,256,240,223,210,220,232,245,264,271,280,297,317,336,349,353,353,367,393,412,403,386,371,356,334,311,289,262,236,202,197,227,222,203,202,234,266,292,320,351,382,395,384,373,362,347,336,332,347,367,395,426,459,485,515,538,550,556,550,536,519,500,480,464,452,433,412,398,395,394,391,380,366,352,338,332,325,322,322,318
901,877,828,794,757,719,702,714,742,770,783,808,820,810,780,740,682,646,658,691,707,677,643,612,583,562,585,602,603,600,601,619,648,682,704,712,708,702,696,695,695,701,706,699,691,687,678,653,618,582,542,503,499,511,519,518,500,475,454,433,408,385,353,342,339,321,295,282,272,269,275,266,263,265,269,269,267,262,260,262,271,278,285,288,293,292,292,299,313,318,303,280,266,258,251,250,257,278,309,349,374,376,364,358,341,328,328,324,317,311,310,311,320,348,378,388,379,345,325,294,286,303,325,346,367,353,322,290,265,271,263,263,264,269,253,237,259,301,325,329,327,318,313,304,277,241,229,253,279,322,365,366,338,308,275,249,223,217,213,212,223,252,266,257,262,300,351,414,482,507,510,512,518,516,519,524,550,573,599,628,638,620,595,567,526,491,462,454,466,489,517,522,472,413,348,291,252,222,213,233,279,301,354,396,397,429,469,495,521,538,535,513,492,497,518,549,585,603,585,556,545,531,509,478,455,428,396,355,327,312,316,319,321,319,329,342,360,360,373,393,413,425,415,405,410,421,426,418,432,455,487,496,483,483,509,511,502,499,508,527,542,527,533,558,585,611,640,673,724,773,819,830,816,829,850,864,886,931,1016,1090,1149,1188,1201,1180,1158,1144,1146,1145,1123,1084,1044,1010,969,927,887,850,807,761,710,663,612,558,500,450,433,428,398,358,342,358,399,428,439,452,469,486,511,502,479,471,482,501,512,522,535,550,557,560,569,579,586,587,594,612,613,608,638,714,765,818,853,880,923,941,918,884,863,855,845,840,840,832,834,851,857,858,855,849,834,818,799,785,778,770,759,747,736,726,714,698,665,622,614,667,709,738,768,806,840,864,885,915,948,977,998,1008,994,987,988,982,964,939,915,894,892,919,956,1004,1026,1039,1042,1032,1031,1068,1097,1107,1133,1150,1152,1149,1155,1173,1193,1203,1200,1194,1185,1207,1238,1275,1299,1310,1327,1353,1385,1414,1430,1444,1460,1474,1480,1445,1400,1337,1287,1252,1249,1252,1239,1258,1296,1325,1328,1294,1256,1249,1265,1269,1284,1302,1306,1315,1304,1284,1267,1269,1280,1285,1293,1299,1300,1275,1238,1220,1213,1212,1199,1171,1137,1103,1080,1058,1031,1010,994,980,956,920,891,856,823,794,765,746,735,735,770,822,873,916,958,999,1044,1076,1109,1111,1105,1080,1058,1049,1049,1059,1063,1061,1075,1117,1168,1202,1198,1193,1206,1211,1222,1244,1279,1311,1337,1360,1379,1398,1412,1430,1449,1477,1513,1553,1588,1629,1667,1715,1751,1747,1715,1682,1659,1630,1581,1537,1504,1473,1462,1480,1495,1507,1505,1484,1446,1403,1355,1297,1244,1189,1146,1110,1066,1017,983,951,919,884,854,820,783,746,730,712,699,683,667,647,620,600,597,605,610,615,621,621,612,613,613,606,609,619,636,652,666,665,645,605,563,528,535,561,558,559,579,594,595,579,563,541,519,501,482,467,441,415,399,379,351,308,278,324,375,403,430,437,445,458,479,484,484,489,545,605,617,628,582,544,561,576,559,585,602,590,569,584,616,649,698,752,749,711,698,714,730,755,767,775,780,791,818,843,866,888,900,905,920,946,979,1032,1081,1122,1157,1196,1261,1343,1398,1434,1495,1543,1573,1575,1556,1521,1488,1458,1435,1414,1399,1379,1339,1309,1271,1234,1198,1159,1122,1087,1055,1016,985,957,936,908,872,875,918,953,1000,1044,1081,1124,1162,1186,1192,1195,1190,1189,1190,1215,1242,1270,1290,1288,1271,1245,1202,1160,1127,1089,1058,1032,1010,984,952,922,883,853,820,798,793,789,777,764,765,776,781,786,785,776,773,764,751,751,753,752,758,748,738,732,720,704,691,676,658,647,640,628,612,592,568,540,519,497,473,451,436,426,410,392,373,351,326,297,264,265,313,338,340,342,342,343,338,318,316,330,341,359,399,436,450,461,466,459,442,439,432,414,401,365,331,305,283,296,338,363,385,397,400,391,376,367,372,382,416,438,432,420,416,445,494,532,578,593,598,611,633,652,662,675,683,694,711,721,732,736,719,692,709,740,767,784,792,763,728,719,757,795,798,758,708,672,668,694,737,779,820,854,860,865,889,892,871,847,869,923,965,1018,1060,1090,1100,1088,1072,1059,1059,1066,1075,1079,1092,1112,1131,1170,1218,1265,1307,1354,1398,1438,1456,1469,1448,1421,1391,1378,1394,1399,1404,1427,1451,1469,1465,1442,1424,1409,1399,1385,1363,1337,1297,1260,1217,1173,1130,1124,1144,1147,1138,1134,1150,1193,1211,1226,1239,1254,1272,1288,1299,1312,1334,1348,1361,1366,1355,1345,1342,1339,1325,1300,1291,1277,1248,1225,1214,1211,1210,1215,1217,1209,1185,1166,1144,1117,1095,1083,1060,1034,1017,1004,968,928,901,881,885,899,899,888,866,859,869,876,872,860,853,832,797,752,690,661,630,604,583,550,520,488,443,406,378,347,326,317,326,325,320,307,283,246,245,281,306,344,386,430,466,475,438,383,331,295,300,314,337,381,412,442,477,520,568,608,642,697,751,788,834,878,913,930,939,957,985,1012,1018,1019,1028,1025,1026,1038,1047,1051,1069,1082,1064,1036,1018,978,951,926,906,886,867,846,823,805,796,787,774,757,736,712,684,651,618,599,592,583,567,557,540,528,517,494,472,452,437,420,406,390,376,370,361,354,350,357,363,363,348,328,305,292,296,297,281,251,230,225,228,239,262,279,278,298,313,322,342,365,383,389,386,393,416,442,437,413,394,373,350,327,301,272,250,225,203,215,246,236,213,209,245,284,318,345,365,398,420,407,390,376,366,356,346,359,385,405,429,458,486,515,544,565,562,547,528,509,488,468,450,436,419,396,377,363,359,362,363,363,351,329,307,296,297,302,300
842,838,802,755,706,675,662,658,669,699,720,753,780,777,748,705,664,620,606,633,665,681,646,600,563,534,548,567,568,579,609,642,671,684,678,670,662,656,651,651,655,661,663,656,644,630,624,606,596,572,539,500,474,458,462,462,449,430,411,389,369,348,329,314,310,296,278,272,272,274,280,280,271,265,264,264,264,264,263,263,264,262,260,258,258,266,274,277,281,293,295,278,262,252,251,256,265,279,315,352,375,382,382,385,385,380,379,379,376,358,330,314,319,338,367,405,414,377,347,315,299,325,367,395,400,366,327,291,295,321,323,318,313,308,273,241,229,241,268,287,281,262,245,235,224,224,241,279,313,345,370,384,379,360,325,296,256,233,237,252,274,324,324,276,261,300,352,412,476,521,548,565,577,573,579,583,599,604,616,625,595,567,544,523,506,477,435,407,412,429,434,427,430,404,345,287,238,217,231,262,301,322,329,289,326,368,398,432,471,503,543,546,534,532,533,556,590,607,602,577,550,528,502,475,449,421,393,352,327,339,362,371,363,352,353,346,347,337,354,369,369,370,382,397,411,415,410,422,462,498,536,540,526,536,556,558,550,550,548,559,584,573,571,575,593,619,653,723,790,831,872,903,904,917,931,931,960,999,1056,1096,1143,1175,1202,1217,1214,1208,1183,1137,1082,1043,997,958,926,888,842,805,763,730,689,641,597,556,507,484,471,461,432,374,332,337,358,372,381,392,403,433,432,421,412,418,433,452,472,487,498,509,517,522,532,544,551,552,562,574,564,568,603,691,724,771,825,876,907,886,849,820,808,801,789,780,777,770,783,809,817,822,822,815,802,788,776,771,766,753,742,737,733,721,702,671,632,601,621,669,721,760,776,798,820,847,877,913,941,966,989,1011,1012,1004,989,970,945,917,887,863,869,889,914,940,947,954,963,955,975,1025,1039,1044,1068,1093,1093,1089,1095,1118,1130,1129,1130,1125,1131,1169,1203,1240,1264,1281,1305,1332,1362,1391,1415,1430,1450,1471,1484,1456,1404,1351,1298,1281,1298,1298,1272,1275,1311,1341,1341,1309,1293,1295,1311,1323,1330,1352,1366,1362,1339,1308,1273,1249,1233,1225,1232,1260,1284,1265,1219,1179,1147,1146,1145,1126,1093,1057,1025,997,978,962,952,952,951,934,905,871,838,807,779,755,743,736,759,802,845,889,936,978,1010,1046,1054,1044,1042,1021,994,976,981,993,996,997,1035,1091,1128,1136,1146,1178,1200,1214,1238,1265,1304,1342,1375,1405,1429,1447,1463,1479,1491,1508,1523,1539,1576,1612,1654,1691,1740,1764,1748,1728,1702,1676,1629,1574,1546,1523,1518,1541,1561,1559,1536,1495,1450,1396,1349,1305,1262,1208,1151,1106,1061,1005,958,922,897,865,830,791,771,745,723,709,700,690,671,653,632,601,574,557,552,553,564,570,561,564,569,565,574,605,623,629,637,637,622,605,571,510,500,533,540,515,518,545,537,518,502,477,450,423,405,385,359,328,331,329,362,347,293,312,372,425,470,488,503,522,535,543,547,551,593,638,681,714,649,600,664,653,645,647,657,639,616,628,672,717,754,794,804,777,728,723,750,796,814,809,793,807,850,893,920,952,964,958,957,978,1008,1039,1071,1107,1140,1189,1242,1299,1357,1436,1507,1551,1576,1577,1564,1548,1518,1494,1483,1465,1438,1404,1371,1338,1304,1269,1235,1202,1159,1120,1088,1057,1027,997,975,937,895,873,898,952,1015,1060,1098,1136,1161,1172,1167,1150,1156,1169,1195,1227,1256,1281,1291,1291,1277,1255,1206,1169,1144,1117,1085,1052,1030,1001,971,940,905,869,847,836,826,824,812,802,801,809,821,824,818,811,800,791,781,775,778,775,776,769,762,753,742,734,722,706,694,677,659,640,624,603,584,560,539,518,497,478,457,438,414,397,386,370,341,297,261,264,310,351,375,388,389,382,372,361,358,395,414,414,406,419,446,479,509,520,509,498,482,460,423,382,369,342,299,286,289,301,312,329,335,344,337,320,316,334,366,378,381,397,427,469,509,534,561,566,570,583,610,634,647,652,653,666,679,685,693,684,653,641,669,712,735,734,736,722,694,698,737,772,754,705,658,637,662,700,741,785,811,814,802,802,820,829,817,834,884,943,987,1024,1044,1048,1047,1035,1027,1026,1020,1023,1039,1040,1052,1080,1120,1161,1215,1259,1302,1342,1386,1427,1463,1487,1468,1434,1408,1398,1419,1431,1428,1444,1467,1486,1505,1497,1477,1463,1442,1416,1382,1342,1285,1240,1211,1193,1174,1163,1187,1191,1188,1186,1190,1220,1234,1246,1263,1287,1313,1327,1340,1354,1364,1377,1384,1383,1366,1359,1358,1355,1339,1318,1311,1297,1268,1244,1232,1223,1210,1210,1211,1200,1177,1144,1114,1083,1056,1037,1020,989,967,955,927,889,850,828,827,833,834,831,814,811,820,827,822,815,813,811,781,723,673,628,603,575,547,525,505,482,466,421,373,338,302,285,280,271,267,269,260,239,240,286,335,378,422,463,505,498,446,392,352,314,307,310,320,352,387,428,471,515,534,571,602,647,694,747,790,832,865,886,914,940,979,1008,1007,996,995,981,982,988,998,1005,1032,1064,1063,1033,1008,972,945,924,909,892,873,843,815,794,773,756,741,723,709,691,671,645,623,606,587,567,538,527,520,515,511,501,484,480,471,468,450,430,406,395,377,359,342,325,317,310,310,293,271,263,260,261,251,237,233,254,278,293,315,326,319,334,356,368,383,404,424,426,426,440,465,469,447,421,402,378,353,317,291,263,245,231,218,224,255,255,228,218,243,283,317,350,376,408,430,417,404,398,385,379,366,373,402,421,443,465,493,526,552,549,538,528,518,500,481,460,443,426,407,386,366,346,337,339,346,348,346,333,310,293,272,268,278
768,785,776,742,691,633,591,574,587,619,657,703,734,734,701,664,634,601,591,625,661,685,657,609,565,523,513,526,556,594,631,648,647,644,638,631,623,617,613,607,609,613,618,610,596,587,574,555,541,517,492,465,441,425,428,434,420,399,380,361,340,324,311,300,289,278,275,279,282,287,302,307,295,286,281,282,285,286,281,280,282,283,292,283,266,258,257,258,257,257,260,258,255,255,258,262,271,287,322,351,369,379,385,389,396,399,405,410,408,379,337,318,329,354,384,416,434,409,370,339,317,339,381,410,399,374,352,339,352,372,377,362,348,321,280,249,229,222,226,231,231,227,224,221,226,243,247,266,309,349,371,400,422,392,375,347,304,281,305,315,336,366,357,316,279,293,337,398,441,484,531,564,599,621,628,627,635,635,617,578,543,513,484,461,446,438,426,391,370,376,374,359,371,385,344,290,242,238,268,297,329,347,348,319,285,313,358,386,422,467,522,545,540,529,517,525,545,558,564,560,543,535,522,494,461,427,399,366,348,377,408,415,396,383,398,405,406,398,418,419,415,401,409,430,449,459,462,458,480,525,563,582,577,587,602,594,596,595,582,593,631,633,625,608,599,638,651,744,815,852,891,942,975,993,1013,1025,1023,1039,1064,1084,1115,1160,1209,1270,1275,1244,1185,1123,1061,1006,956,911,872,842,810,771,726,690,649,623,593,577,531,498,479,459,453,436,397,395,390,399,376,366,357,340,348,349,356,374,388,407,431,450,464,473,479,484,496,506,513,516,517,524,520,535,566,646,699,753,814,858,853,813,781,756,750,743,728,721,719,718,736,765,782,791,796,792,784,779,772,764,756,744,734,731,725,716,685,651,613,597,634,683,731,779,808,830,851,869,881,893,892,898,921,947,968,975,966,943,924,903,876,850,844,849,865,885,886,893,892,904,935,960,972,987,1013,1026,1031,1031,1038,1049,1062,1067,1071,1074,1090,1122,1160,1199,1214,1242,1280,1315,1350,1383,1407,1429,1457,1481,1495,1475,1424,1373,1321,1327,1350,1340,1307,1303,1337,1366,1364,1339,1341,1345,1353,1377,1388,1403,1415,1391,1346,1295,1247,1219,1192,1173,1177,1207,1234,1232,1187,1135,1097,1087,1096,1083,1047,1015,977,945,924,913,907,898,904,922,921,902,866,833,799,771,756,743,753,794,835,875,913,958,994,1002,996,979,966,957,935,923,938,954,976,1004,1029,1048,1070,1107,1157,1212,1247,1265,1285,1304,1327,1352,1384,1431,1465,1497,1518,1536,1546,1557,1566,1574,1588,1614,1646,1691,1734,1773,1783,1765,1742,1700,1660,1629,1602,1574,1577,1597,1608,1587,1546,1504,1459,1415,1379,1334,1288,1230,1174,1126,1074,1017,960,908,866,839,811,786,763,746,722,697,672,661,647,623,602,585,575,562,541,525,521,524,526,527,530,530,553,592,615,604,601,607,589,552,527,491,480,513,525,498,474,489,486,461,443,422,396,372,348,324,296,291,300,291,300,330,297,291,352,403,457,493,533,563,585,608,623,626,641,687,736,775,742,706,665,703,669,698,719,699,665,683,724,770,833,864,861,823,771,758,782,821,858,870,845,817,838,905,945,992,1022,1028,1013,1027,1058,1087,1120,1146,1176,1210,1246,1314,1367,1450,1515,1540,1545,1546,1541,1540,1527,1512,1501,1485,1455,1409,1378,1350,1314,1284,1251,1215,1187,1150,1121,1089,1061,1029,997,960,924,888,880,924,1003,1070,1106,1120,1129,1137,1132,1128,1143,1166,1196,1226,1255,1284,1301,1300,1286,1258,1223,1187,1160,1131,1101,1078,1052,1022,989,942,919,901,891,878,868,862,851,849,845,854,860,861,852,838,828,823,819,810,809,808,805,796,790,787,779,769,753,736,717,705,681,662,640,620,595,571,551,536,512,487,468,451,435,415,389,352,313,273,258,279,314,346,381,415,427,424,418,419,415,450,477,473,461,454,442,458,504,545,562,560,526,482,445,430,413,382,340,314,295,292,307,307,303,308,318,331,326,318,337,347,365,387,418,446,468,488,509,519,532,545,565,586,600,611,618,630,639,640,639,623,595,602,639,679,696,681,664,643,636,672,717,731,703,663,621,615,653,697,738,780,784,755,732,739,760,775,794,833,880,931,984,1008,1004,999,997,993,996,1002,999,995,992,1000,1030,1072,1108,1149,1193,1237,1286,1341,1393,1431,1468,1493,1486,1461,1439,1428,1441,1459,1461,1470,1500,1528,1543,1544,1525,1490,1448,1404,1363,1330,1283,1266,1254,1239,1218,1205,1227,1238,1248,1245,1231,1235,1256,1272,1286,1309,1344,1369,1390,1397,1392,1384,1369,1348,1321,1307,1307,1302,1302,1308,1303,1279,1247,1213,1182,1165,1154,1154,1153,1143,1124,1100,1069,1046,1021,994,976,948,922,897,878,855,819,789,778,779,781,786,765,758,774,780,773,768,769,774,768,717,665,619,580,554,522,499,476,443,429,406,349,308,283,271,261,254,250,246,248,244,257,300,346,399,449,501,535,514,471,433,393,359,328,320,332,346,375,410,444,468,494,536,569,609,659,714,745,769,796,829,871,921,965,983,964,948,942,941,941,940,947,966,1006,1037,1042,1032,1013,993,975,957,939,919,894,864,840,811,787,770,752,730,703,678,666,656,641,616,598,583,572,564,574,562,553,545,548,544,537,527,509,480,471,460,438,418,388,357,331,313,307,292,288,291,273,257,239,238,266,295,325,347,368,369,364,379,402,417,423,437,459,469,473,484,483,461,437,417,396,375,347,318,285,256,234,223,226,246,275,261,231,223,248,280,312,342,371,397,429,438,433,424,411,399,386,389,408,432,458,484,516,542,553,541,522,505,494,482,474,460,440,421,401,379,353,334,330,327,326,322,324,322,314,299,272,244,240
710,714,718,691,635,581,543,532,558,596,624,653,682,696,675,649,615,576,575,616,655,656,618,573,537,500,498,541,586,611,608,602,596,594,586,583,579,570,561,556,559,567,571,568,563,555,544,530,521,506,486,466,446,417,392,395,388,367,351,336,321,304,291,284,276,273,286,291,297,309,320,324,319,313,315,313,315,313,307,317,323,330,344,338,305,282,262,258,253,253,253,254,255,261,266,268,278,298,334,363,375,383,389,394,398,404,411,416,409,375,344,328,335,375,406,439,450,424,390,365,345,346,387,417,416,401,389,396,408,414,410,386,357,323,292,265,241,224,223,223,225,223,228,242,262,282,266,257,287,333,365,390,413,421,417,394,350,339,370,368,380,397,382,349,311,297,334,371,412,459,504,545,586,624,644,634,601,572,550,515,485,448,420,396,381,380,379,370,359,339,317,293,295,320,324,287,247,285,308,321,344,378,390,371,336,293,305,338,382,439,488,503,509,503,483,480,494,509,517,523,522,527,531,510,476,445,429,396,376,409,445,440,434,423,426,448,464,459,476,477,460,445,466,480,494,498,474,491,512,533,572,612,629,660,656,612,599,598,620,638,679,708,732,709,696,695,714,761,804,832,916,978,1018,1042,1074,1095,1089,1094,1106,1123,1141,1188,1255,1302,1272,1216,1158,1113,1072,1007,940,893,855,832,813,786,748,707,684,684,666,648,646,621,586,546,504,478,462,438,425,418,418,411,391,360,332,318,320,329,345,365,382,404,423,437,445,444,444,450,461,474,471,479,502,532,569,612,698,758,795,805,775,745,715,696,684,673,669,670,666,671,692,715,728,746,765,763,759,767,764,760,753,741,726,710,688,666,643,617,593,600,647,698,751,784,794,800,815,831,840,838,828,831,855,874,884,894,903,902,892,878,858,831,815,827,846,845,835,842,843,852,873,889,907,931,951,955,970,979,987,1002,1007,1017,1028,1043,1084,1114,1130,1163,1192,1230,1281,1313,1355,1383,1408,1438,1469,1499,1515,1496,1448,1405,1373,1378,1396,1382,1350,1346,1376,1400,1398,1387,1398,1397,1397,1421,1431,1433,1417,1388,1355,1312,1270,1237,1201,1156,1135,1154,1173,1168,1124,1079,1041,1024,1037,1043,1015,972,936,899,883,872,861,856,862,881,900,917,896,863,836,805,778,753,739,758,800,847,881,916,933,925,915,907,897,886,890,908,943,971,1006,1037,1061,1076,1098,1133,1186,1237,1288,1314,1328,1348,1374,1395,1415,1446,1483,1521,1558,1583,1600,1611,1625,1632,1634,1647,1664,1696,1734,1773,1799,1801,1777,1744,1705,1668,1643,1626,1638,1647,1628,1580,1540,1496,1447,1407,1360,1317,1273,1223,1191,1140,1074,1024,973,935,895,860,832,806,780,758,731,700,674,647,622,616,624,628,619,599,571,546,535,523,513,502,500,507,528,553,581,574,560,568,561,525,490,477,453,470,485,467,439,442,444,423,403,388,371,343,316,294,285,292,307,310,295,292,277,298,339,369,399,438,486,524,561,620,665,673,702,723,784,837,874,779,713,688,729,762,781,762,723,735,786,869,897,920,898,853,805,801,824,846,886,916,894,858,847,882,931,996,1047,1076,1079,1087,1118,1140,1178,1203,1225,1256,1283,1348,1401,1490,1526,1527,1525,1524,1521,1523,1519,1510,1496,1476,1452,1406,1359,1330,1301,1268,1237,1208,1183,1157,1121,1091,1059,1024,995,962,928,907,892,912,965,1029,1061,1063,1074,1094,1107,1119,1146,1177,1210,1243,1272,1297,1315,1312,1293,1267,1229,1205,1180,1150,1126,1109,1081,1048,1013,978,959,960,947,935,922,910,901,899,902,901,902,903,897,880,870,862,861,856,855,854,841,837,832,826,816,802,783,759,740,722,700,679,654,627,603,581,560,540,530,515,498,478,454,414,377,338,299,271,278,323,349,368,393,425,452,472,481,471,459,483,517,529,526,509,468,458,494,544,592,598,552,516,487,455,417,389,379,366,328,299,308,329,344,349,362,378,361,331,333,331,335,340,361,395,414,428,451,476,498,512,531,548,556,570,582,590,597,596,585,561,545,575,620,659,662,625,599,587,608,661,692,671,640,613,584,583,614,660,702,739,733,702,709,749,777,794,817,853,896,943,985,993,981,966,954,952,962,970,960,951,957,999,1046,1091,1128,1169,1214,1259,1306,1350,1398,1437,1456,1470,1473,1464,1457,1456,1467,1488,1502,1509,1535,1564,1579,1575,1542,1499,1452,1406,1372,1340,1322,1321,1302,1281,1246,1236,1270,1297,1304,1302,1283,1278,1302,1318,1329,1345,1373,1400,1413,1401,1374,1343,1319,1297,1270,1258,1261,1247,1246,1263,1269,1240,1200,1171,1136,1106,1091,1100,1103,1090,1074,1051,1024,994,976,960,934,908,880,854,835,814,790,764,735,724,726,728,717,727,745,744,738,728,729,736,746,722,681,627,576,532,495,465,437,413,388,377,348,312,285,270,255,266,279,285,292,296,304,335,369,422,473,531,570,551,517,480,443,406,362,337,339,335,357,396,438,464,486,511,537,576,616,648,678,719,768,819,874,925,946,944,931,914,891,884,886,895,925,947,980,997,1005,1023,1039,1044,1025,1003,971,948,923,897,868,845,823,802,786,760,727,695,687,683,673,660,644,634,632,626,631,630,618,628,627,611,602,584,557,534,528,521,488,461,438,410,382,361,354,350,337,320,287,260,253,285,316,342,369,391,412,412,402,413,437,459,472,481,494,508,511,508,479,452,429,405,374,353,326,304,284,263,239,227,249,281,277,256,237,242,268,287,304,327,357,391,424,452,459,447,439,430,413,402,416,442,468,496,535,564,557,539,520,500,484,476,467,458,443,418,398,378,353,336,328,321,316,308,300,295,282,276,258,240,227
637,645,648,633,596,557,522,511,522,548,578,614,643,658,652,632,595,555,552,595,627,621,586,538,496,471,494,547,576,574,564,554,547,540,526,523,522,518,514,513,509,510,520,529,526,514,500,485,477,473,461,443,418,393,371,366,349,330,314,296,283,277,274,273,275,292,313,308,314,332,337,336,334,331,334,341,351,353,336,343,356,370,387,379,343,316,288,272,260,260,263,267,268,269,277,283,291,308,340,372,383,394,401,404,413,418,422,429,407,368,341,332,344,387,439,465,467,455,431,401,370,370,400,436,452,432,419,436,455,448,412,380,353,335,317,294,275,258,253,252,253,256,271,297,313,300,267,271,304,318,330,359,383,422,441,415,389,391,410,412,419,417,393,369,328,297,324,369,424,473,513,544,576,599,605,581,545,511,491,469,431,386,352,329,311,296,290,292,293,297,287,272,247,231,238,235,260,319,337,349,366,392,424,414,375,329,286,305,351,402,431,448,468,459,442,437,449,457,468,482,489,492,508,514,503,483,459,431,410,418,450,473,479,469,471,488,510,506,525,530,500,498,516,529,500,492,489,504,552,587,602,660,721,751,737,700,627,648,685,707,736,768,803,808,785,728,751,778,812,850,907,967,1009,1053,1094,1134,1155,1168,1198,1191,1201,1242,1288,1272,1219,1175,1130,1093,1054,1026,1005,948,947,919,879,837,791,761,751,757,719,763,759,743,689,612,541,503,475,461,451,440,427,422,401,371,356,343,323,319,322,327,342,361,382,396,395,389,389,404,418,424,443,472,502,539,580,622,687,742,763,744,706,672,657,652,639,626,619,615,612,626,648,663,679,708,728,738,742,750,755,753,744,716,686,659,632,605,587,584,599,636,678,728,757,762,751,745,754,759,773,776,768,771,788,806,810,815,826,824,820,807,802,794,794,799,792,792,797,807,820,835,847,856,868,885,902,913,925,947,972,994,1013,1039,1062,1079,1109,1140,1169,1198,1230,1254,1288,1323,1362,1397,1426,1451,1472,1500,1520,1516,1479,1443,1430,1440,1448,1429,1398,1400,1423,1445,1446,1438,1443,1432,1420,1413,1409,1393,1366,1345,1339,1305,1259,1223,1191,1153,1117,1102,1121,1120,1085,1035,999,976,973,993,992,953,901,883,887,876,860,847,843,844,865,890,908,898,875,848,814,778,747,748,764,788,811,835,846,845,843,843,846,868,893,926,965,1000,1035,1072,1101,1118,1144,1176,1216,1261,1311,1355,1376,1394,1419,1444,1463,1485,1514,1545,1580,1599,1621,1651,1668,1683,1686,1698,1712,1727,1741,1762,1776,1790,1786,1771,1749,1709,1680,1667,1682,1673,1629,1577,1527,1478,1428,1382,1347,1310,1271,1241,1217,1185,1146,1097,1043,985,968,928,872,824,783,746,707,684,661,639,643,659,673,671,662,635,595,576,570,554,539,523,499,478,490,509,529,526,507,503,504,484,458,454,437,425,434,436,425,413,410,399,379,369,355,330,307,293,285,289,304,325,337,311,334,359,379,404,426,470,507,522,565,618,671,719,755,783,827,876,909,877,815,736,792,886,850,823,789,789,845,886,931,949,932,903,862,846,865,885,910,941,947,918,896,889,930,990,1048,1096,1136,1159,1181,1202,1221,1248,1283,1317,1351,1392,1450,1519,1540,1528,1516,1506,1495,1489,1492,1492,1481,1460,1435,1393,1351,1321,1285,1253,1219,1190,1162,1135,1095,1062,1026,986,955,935,939,939,927,905,926,965,1001,1020,1054,1090,1113,1132,1157,1186,1222,1257,1287,1301,1312,1315,1301,1281,1253,1231,1196,1171,1145,1127,1107,1079,1051,1032,1015,1014,998,983,963,951,939,940,946,948,946,943,939,928,918,911,903,901,901,891,879,872,865,854,844,829,808,783,765,734,709,684,664,644,621,604,585,570,559,540,513,489,458,417,388,368,330,303,302,345,394,419,436,456,480,514,537,532,503,506,553,584,578,545,496,473,500,556,601,621,583,549,505,459,438,433,432,398,360,323,305,300,334,376,405,425,416,395,376,366,366,354,349,351,353,377,408,442,466,479,489,503,518,533,548,552,549,553,546,515,514,563,613,645,635,584,549,553,592,642,652,619,578,555,548,567,601,638,678,713,703,677,700,753,796,825,855,883,904,926,950,960,939,919,916,911,911,909,909,917,961,1007,1040,1081,1126,1176,1233,1285,1330,1362,1389,1403,1405,1401,1400,1414,1428,1445,1473,1508,1535,1548,1567,1592,1602,1582,1558,1532,1492,1455,1417,1381,1370,1376,1349,1318,1281,1274,1308,1343,1358,1349,1323,1325,1347,1367,1386,1396,1416,1426,1403,1362,1322,1285,1263,1244,1223,1210,1220,1207,1197,1215,1227,1200,1161,1122,1089,1057,1035,1039,1038,1034,1031,1007,967,936,922,912,888,866,846,831,807,784,764,752,734,702,681,677,679,703,715,712,703,688,684,689,705,710,676,632,580,536,500,467,429,387,357,337,324,308,287,266,265,285,306,336,363,368,372,387,415,460,502,556,600,597,564,526,486,449,406,388,370,352,359,399,436,447,461,490,520,540,573,604,654,708,765,815,867,902,911,896,878,868,851,832,840,873,906,933,949,954,969,994,1030,1061,1064,1040,1014,993,968,940,917,893,871,840,812,783,753,722,723,728,716,706,700,698,695,691,692,688,682,689,685,670,655,631,607,592,570,547,522,497,473,449,425,401,392,374,346,316,281,260,277,313,353,388,417,432,453,458,450,455,474,493,513,522,528,524,517,501,479,461,442,420,392,362,331,309,289,269,245,233,255,289,282,257,249,276,306,323,334,349,371,402,434,463,478,474,472,456,431,424,431,454,480,512,549,571,557,540,526,509,491,478,466,456,446,428,401,379,362,347,335,325,314,300,283,273,261,257,253,244,234
573,574,579,586,564,537,511,495,500,531,566,600,621,619,606,582,552,526,531,562,574,571,551,515,472,446,479,505,511,504,495,491,484,477,473,474,476,479,482,478,467,471,475,472,464,455,450,447,442,437,427,406,380,361,351,345,326,308,292,280,277,276,276,278,289,321,339,332,326,337,343,362,374,379,383,389,389,384,373,376,394,410,427,413,382,341,308,283,272,279,281,279,277,276,286,298,312,337,368,391,402,414,424,437,446,447,444,433,397,359,345,345,356,394,432,467,478,471,458,428,394,398,430,452,448,437,449,470,486,465,422,397,375,353,335,324,315,298,296,305,302,299,311,336,339,311,268,276,309,336,357,382,409,437,455,449,439,432,453,458,451,428,403,375,343,315,320,362,400,440,479,504,527,548,558,526,496,460,427,404,386,350,305,256,242,239,240,236,242,267,302,312,300,268,239,242,291,322,352,375,393,420,441,428,400,369,320,298,311,344,378,400,399,388,381,384,407,420,424,442,461,473,482,495,517,513,488,455,442,448,464,506,538,507,484,488,513,574,592,586,571,601,642,665,647,598,521,517,592,649,682,736,794,848,894,780,689,715,798,789,806,817,845,844,820,781,811,842,882,905,934,976,1021,1053,1076,1112,1160,1200,1256,1273,1284,1300,1287,1247,1208,1165,1127,1099,1078,1066,1035,1010,988,962,907,874,828,791,771,755,742,737,737,693,629,562,510,485,475,475,473,465,457,444,423,401,389,367,345,332,322,320,323,325,330,338,338,339,345,359,376,400,430,458,494,544,589,620,667,704,692,654,617,595,594,600,592,583,569,562,560,569,584,605,640,665,687,715,730,736,743,743,726,683,641,604,578,571,587,622,655,684,705,713,711,700,692,691,692,692,703,708,716,723,729,741,745,746,735,734,743,739,737,751,765,772,789,801,815,835,851,879,895,896,891,921,940,938,935,964,1009,1044,1070,1098,1126,1137,1137,1168,1211,1248,1287,1312,1325,1342,1372,1411,1437,1450,1463,1484,1509,1525,1516,1495,1494,1502,1508,1479,1456,1452,1464,1454,1444,1441,1436,1414,1385,1366,1361,1354,1329,1300,1288,1263,1236,1214,1181,1138,1100,1071,1071,1067,1035,997,963,952,940,941,958,931,896,908,925,905,885,868,851,838,830,838,860,880,889,870,839,805,767,761,771,779,781,787,794,793,812,837,869,902,932,963,988,1019,1050,1087,1123,1154,1187,1215,1241,1281,1319,1366,1409,1433,1458,1480,1490,1496,1501,1515,1530,1542,1566,1608,1632,1656,1692,1720,1727,1715,1703,1698,1703,1730,1760,1775,1761,1739,1711,1702,1709,1680,1628,1574,1532,1485,1444,1416,1395,1369,1329,1304,1287,1267,1224,1167,1110,1057,1022,977,904,851,772,725,691,671,663,669,693,713,718,712,703,680,638,616,610,596,574,554,520,488,472,469,474,472,452,447,453,441,424,416,409,403,401,405,404,388,382,371,351,340,326,312,306,298,288,288,296,305,346,369,395,426,449,475,495,529,548,567,597,649,703,749,784,835,887,926,970,1018,924,900,910,953,907,871,850,844,881,931,972,988,977,952,913,882,894,930,953,982,996,970,938,917,939,988,1028,1069,1124,1181,1223,1252,1280,1309,1339,1375,1401,1435,1474,1526,1542,1530,1518,1501,1476,1455,1455,1460,1448,1437,1409,1382,1344,1285,1241,1212,1191,1160,1119,1087,1060,1031,992,974,972,980,990,996,973,936,916,922,958,994,1038,1082,1116,1148,1169,1190,1224,1252,1274,1289,1309,1313,1301,1285,1268,1245,1209,1186,1170,1150,1133,1114,1093,1078,1066,1057,1041,1022,1005,992,983,984,984,993,996,988,975,961,946,930,920,914,907,902,887,865,854,843,843,826,808,793,774,747,719,697,678,664,646,627,608,597,581,558,523,503,478,449,415,368,326,297,308,346,410,427,461,495,525,557,583,576,548,546,583,613,602,564,523,492,508,561,607,634,608,560,520,506,496,486,463,410,373,360,347,317,310,346,383,421,454,457,439,422,420,419,397,383,377,368,378,410,439,452,463,468,481,502,512,517,514,512,503,481,500,550,594,612,587,541,517,526,560,583,597,574,538,529,541,556,586,626,671,699,683,659,684,736,786,817,841,860,869,877,897,907,895,878,862,851,845,852,879,915,958,989,1027,1069,1118,1167,1216,1268,1297,1307,1317,1328,1339,1340,1344,1354,1369,1405,1454,1501,1543,1567,1591,1611,1595,1569,1546,1522,1499,1471,1441,1411,1412,1409,1374,1335,1306,1311,1340,1372,1398,1388,1357,1356,1383,1410,1440,1459,1452,1417,1374,1333,1289,1253,1219,1194,1176,1168,1180,1180,1158,1162,1167,1152,1131,1095,1055,1013,984,977,977,975,979,967,937,896,872,855,843,821,806,792,764,746,726,710,705,689,665,643,651,681,692,692,682,671,658,651,657,672,660,612,559,517,482,449,418,382,354,317,294,274,266,266,283,305,332,373,406,431,432,448,474,500,537,582,637,636,603,568,526,493,463,444,420,387,360,376,407,428,450,469,490,521,562,615,679,729,767,800,845,869,863,849,831,818,804,794,821,860,878,886,896,908,934,973,1009,1042,1075,1087,1063,1032,1006,982,957,934,908,876,845,806,770,760,765,765,753,757,760,758,756,747,747,746,740,732,717,690,671,654,636,621,591,567,542,525,498,479,454,429,403,371,337,307,276,268,298,336,378,420,453,480,500,505,502,508,514,532,543,537,530,519,504,486,472,464,448,429,402,374,345,320,296,270,241,244,276,299,284,255,267,304,339,362,374,385,402,421,443,472,495,506,498,479,463,454,453,472,495,527,562,575,559,547,537,521,504,487,473,454,444,435,413,386,364,350,342,332,320,308,295,287,281,277,265,256,244
516,523,552,581,569,551,521,484,483,508,539,555,563,557,542,520,493,474,477,490,506,507,489,466,436,421,435,452,462,461,454,448,445,441,439,439,438,439,442,439,430,426,422,412,407,406,406,408,404,396,391,391,375,352,337,334,319,300,286,276,275,282,291,302,319,343,362,368,369,366,355,346,371,402,426,436,429,426,421,424,439,458,474,452,403,357,317,289,286,291,289,286,285,289,298,310,328,350,382,406,428,448,465,483,495,480,451,416,388,361,359,367,361,374,404,437,470,484,476,445,420,427,458,464,459,458,471,496,500,474,449,430,406,382,361,368,361,346,337,343,347,349,344,341,332,309,280,278,299,322,347,384,426,459,487,491,490,491,500,488,459,429,405,395,386,354,330,345,377,403,430,455,479,510,515,486,446,397,361,341,333,313,276,239,248,261,270,271,282,310,335,350,343,316,292,300,333,339,359,396,431,455,464,442,417,384,352,338,322,309,332,349,346,353,351,342,348,373,389,413,442,459,469,486,506,519,513,501,502,514,518,549,592,557,509,499,571,640,686,696,702,741,778,833,860,739,702,670,693,745,762,800,857,904,941,900,867,859,844,876,885,885,910,895,882,853,875,921,952,960,971,1007,1046,1075,1100,1128,1172,1227,1302,1340,1333,1303,1264,1231,1207,1182,1151,1124,1099,1072,1039,1006,977,931,871,843,808,797,806,795,762,721,691,628,570,538,528,515,510,518,516,501,482,460,440,427,415,391,378,366,346,335,333,328,327,328,327,328,333,337,356,380,403,437,493,547,566,600,636,666,641,591,551,535,545,562,554,535,517,509,511,519,527,548,596,624,659,691,714,724,727,722,695,650,610,573,560,584,614,632,635,631,626,628,628,619,618,625,632,639,654,666,665,665,673,679,683,683,701,716,730,738,758,772,780,798,812,825,851,880,907,939,963,943,922,951,992,987,972,977,1003,1043,1082,1121,1152,1175,1189,1218,1249,1282,1327,1359,1370,1373,1389,1404,1413,1424,1447,1471,1494,1516,1537,1549,1555,1557,1549,1533,1513,1482,1445,1408,1390,1386,1396,1380,1347,1319,1313,1317,1294,1258,1241,1218,1190,1184,1175,1141,1097,1057,1032,1017,990,969,974,983,960,926,918,909,903,929,953,937,912,890,872,860,841,823,810,819,841,855,838,801,769,759,771,799,816,826,827,811,804,828,857,886,915,943,964,992,1026,1066,1101,1129,1157,1187,1218,1256,1298,1337,1374,1409,1440,1444,1443,1436,1433,1445,1461,1492,1522,1542,1571,1605,1645,1679,1675,1658,1645,1638,1646,1681,1710,1744,1766,1764,1753,1738,1724,1677,1619,1577,1545,1512,1494,1475,1451,1431,1396,1366,1340,1314,1268,1216,1159,1106,1047,988,919,833,785,770,745,721,711,728,748,758,753,741,729,706,686,665,659,639,612,587,557,526,498,475,457,441,435,421,415,407,403,404,396,387,384,379,371,364,362,352,334,326,317,308,305,302,300,289,284,288,301,339,426,460,495,530,560,594,625,645,664,679,721,761,817,876,925,966,1007,1043,1053,1031,1078,1023,980,947,922,896,920,973,1020,1044,1027,999,955,918,904,948,994,1027,1042,1029,987,953,967,1002,1025,1063,1119,1172,1213,1265,1318,1353,1397,1432,1461,1485,1506,1522,1522,1514,1502,1482,1459,1435,1417,1419,1413,1404,1385,1367,1343,1297,1219,1170,1144,1109,1091,1066,1045,1021,1010,1023,1029,1042,1054,1043,1011,980,957,945,948,966,1000,1046,1084,1123,1162,1184,1210,1239,1263,1287,1306,1308,1294,1275,1259,1240,1218,1218,1210,1191,1174,1153,1137,1124,1114,1104,1081,1061,1043,1030,1026,1035,1032,1036,1027,1006,979,952,929,910,891,877,875,876,864,841,820,804,792,781,776,771,750,725,690,665,646,642,636,628,623,610,589,564,534,515,495,451,390,341,313,325,349,362,373,398,441,499,530,556,590,609,597,590,617,643,629,597,552,518,516,556,604,635,626,583,562,554,529,497,461,410,400,417,397,358,320,322,356,393,441,483,497,482,475,472,445,441,442,410,383,384,398,420,422,429,435,456,466,466,459,456,448,453,482,521,550,544,516,495,482,484,498,522,537,523,518,535,564,565,571,595,626,648,637,635,671,709,738,766,777,790,801,808,822,831,832,813,798,806,831,868,912,946,967,989,1034,1074,1113,1147,1179,1208,1228,1230,1240,1266,1281,1286,1286,1293,1323,1368,1426,1476,1516,1543,1570,1587,1575,1540,1520,1506,1490,1468,1451,1440,1431,1400,1368,1356,1344,1345,1366,1404,1431,1426,1397,1394,1422,1453,1477,1484,1452,1400,1355,1312,1277,1248,1218,1186,1158,1134,1133,1150,1135,1109,1097,1086,1073,1058,1035,1000,961,926,914,914,918,914,908,882,850,819,808,795,773,751,724,707,691,669,661,656,638,619,622,647,655,650,644,638,623,607,610,634,653,619,569,513,476,442,397,363,325,285,262,267,283,309,329,347,369,399,423,460,486,513,532,552,583,634,678,664,635,592,561,530,502,473,447,411,373,366,398,417,430,454,488,531,582,629,674,706,741,786,818,821,807,791,782,768,755,761,796,837,843,835,848,880,922,967,1002,1033,1064,1099,1082,1048,1015,983,963,933,903,874,830,810,805,808,815,805,801,808,817,817,803,791,785,775,761,744,724,708,690,667,646,628,605,579,555,536,513,488,467,442,410,369,336,312,285,280,317,352,394,434,466,507,535,546,547,555,562,555,537,523,515,503,483,460,448,440,429,416,401,376,351,326,306,279,255,263,302,315,289,268,281,314,347,378,398,417,428,446,472,494,517,526,513,497,489,480,476,491,517,550,580,593,581,568,556,543,522,498,479,456,439,424,410,393,382,379,374,365,352,338,323,315,300,287,271,260,247
465,490,531,559,551,532,503,468,454,465,470,476,485,490,482,463,446,426,418,435,456,464,448,424,400,386,397,413,433,436,431,422,417,406,401,413,414,414,416,407,381,367,356,346,341,341,337,343,345,339,335,350,347,331,323,319,303,290,280,276,279,299,317,329,345,367,386,400,405,406,389,359,355,364,408,450,467,476,478,481,494,511,494,443,395,355,318,300,297,304,300,298,303,309,320,332,355,383,397,423,456,490,517,534,531,483,428,384,362,358,373,395,383,368,374,394,436,474,485,460,438,450,481,486,484,485,494,509,502,474,456,439,418,401,398,407,403,384,370,386,398,397,385,363,335,309,282,282,301,334,359,383,406,433,463,487,505,526,526,499,466,443,439,442,424,386,345,345,384,420,437,458,481,503,495,460,415,381,355,335,319,300,269,241,254,266,281,291,311,338,358,371,379,373,358,368,388,387,395,423,460,493,496,477,452,425,411,383,362,323,319,333,355,385,393,378,355,345,361,389,417,436,455,471,485,509,529,543,565,582,583,613,663,631,636,651,694,781,811,818,805,798,845,884,870,849,826,863,822,813,832,859,909,960,997,1004,996,985,980,956,960,962,980,988,937,915,936,965,1003,1011,1004,1030,1056,1090,1141,1180,1212,1255,1316,1340,1317,1286,1267,1244,1213,1177,1137,1090,1055,1030,991,959,922,881,852,842,840,847,839,806,765,722,655,597,597,604,583,557,554,562,550,531,509,488,471,459,443,422,412,398,385,381,369,360,351,345,337,333,333,334,340,362,385,412,456,497,525,560,603,615,580,528,491,485,497,509,502,485,465,461,474,479,476,496,545,599,640,677,697,700,702,686,655,609,572,549,555,575,582,583,580,591,602,612,618,623,630,640,653,663,677,684,680,671,668,682,696,716,749,765,779,779,792,794,786,796,808,825,856,892,935,975,1006,987,961,966,1016,1033,1016,999,997,1014,1049,1087,1123,1174,1218,1249,1276,1312,1351,1374,1367,1368,1370,1380,1392,1408,1434,1463,1492,1519,1543,1566,1572,1555,1534,1531,1510,1471,1426,1384,1351,1339,1351,1353,1320,1282,1267,1273,1260,1221,1198,1181,1156,1131,1132,1123,1093,1056,1021,994,978,1002,1033,1032,999,964,947,936,935,958,981,967,932,914,909,898,873,856,836,814,802,795,791,777,778,769,760,784,828,861,873,854,835,825,824,825,853,888,915,945,977,1016,1049,1076,1114,1158,1199,1243,1273,1296,1320,1354,1373,1380,1372,1366,1365,1387,1417,1449,1463,1481,1525,1574,1619,1633,1616,1598,1582,1580,1600,1624,1662,1708,1739,1769,1780,1767,1738,1699,1655,1623,1593,1573,1555,1536,1511,1480,1442,1409,1372,1324,1272,1201,1158,1087,1020,942,841,825,850,831,821,791,770,785,798,795,787,770,754,737,725,709,693,676,651,621,590,558,531,514,499,476,448,426,422,421,425,418,410,401,394,395,393,385,374,366,355,343,334,326,322,318,309,299,293,291,289,301,367,439,491,547,589,635,680,718,737,738,772,808,857,907,951,997,1042,1074,1112,1139,1129,1096,1054,1023,991,958,960,1007,1062,1079,1062,1032,996,958,934,948,993,1041,1076,1073,1035,994,1001,1039,1072,1099,1134,1171,1202,1259,1308,1362,1420,1469,1505,1515,1511,1499,1491,1482,1475,1458,1436,1409,1388,1385,1388,1382,1368,1346,1329,1297,1214,1178,1168,1153,1127,1103,1084,1067,1065,1089,1102,1111,1106,1082,1053,1014,990,990,986,975,977,1009,1053,1100,1135,1163,1194,1223,1246,1269,1278,1269,1254,1238,1232,1224,1223,1237,1246,1239,1225,1210,1192,1181,1172,1157,1128,1101,1082,1069,1065,1063,1056,1038,1014,986,969,952,937,922,895,866,841,832,828,816,796,768,747,732,732,734,716,687,657,625,602,598,605,604,602,575,552,534,507,490,468,421,365,340,365,407,406,405,408,403,407,441,488,519,565,611,636,635,653,677,653,626,591,548,521,553,605,648,655,625,603,570,520,491,467,444,443,450,425,383,336,314,347,392,438,481,522,537,540,528,502,498,500,470,442,425,412,397,395,405,410,414,417,412,415,414,414,418,445,483,498,476,464,465,481,503,509,505,506,516,533,566,601,610,599,583,585,599,604,615,637,657,675,696,709,726,736,736,748,762,765,769,791,826,866,902,944,985,1003,1018,1038,1058,1074,1092,1123,1150,1163,1169,1187,1214,1231,1236,1232,1267,1315,1360,1403,1440,1469,1498,1530,1565,1579,1557,1539,1518,1509,1493,1488,1474,1440,1414,1400,1398,1386,1383,1398,1429,1455,1457,1441,1437,1456,1482,1491,1475,1441,1400,1361,1314,1281,1257,1230,1196,1171,1132,1101,1108,1111,1075,1042,1028,1016,1001,984,970,950,915,877,855,857,851,843,838,824,797,770,754,737,719,695,673,656,643,632,629,619,602,589,601,617,610,597,588,579,569,572,599,635,647,612,549,500,459,409,359,306,266,276,296,314,336,363,390,413,444,475,502,527,556,591,618,650,688,695,670,640,608,583,553,514,473,444,410,390,370,376,401,432,471,512,553,590,615,646,690,748,784,783,771,761,747,734,723,714,731,774,802,802,799,830,873,909,946,986,1028,1070,1108,1083,1052,1020,990,960,933,901,871,854,858,860,866,860,847,843,852,857,844,819,799,780,761,747,733,717,696,671,648,630,618,603,579,563,548,529,512,487,458,424,385,353,322,297,291,315,344,384,440,490,525,560,589,591,591,583,553,524,508,499,487,472,453,440,428,418,410,398,379,358,339,316,296,273,270,309,326,304,283,292,313,339,364,385,407,427,450,473,499,526,534,523,513,511,508,504,515,545,579,601,609,599,584,569,549,526,504,492,475,457,438,427,420,419,412,399,386,373,364,350,333,315,294,270,257,248
441,471,505,517,515,509,483,444,409,404,410,419,434,446,443,430,411,392,379,395,425,441,435,421,395,373,373,401,409,403,397,390,381,366,364,372,377,371,365,355,342,331,325,315,311,309,306,306,306,305,305,314,313,309,311,297,283,278,276,278,290,322,346,361,378,392,409,424,437,442,425,396,383,373,396,441,480,508,525,535,529,511,476,429,387,346,325,319,313,318,317,321,329,334,347,366,398,437,443,470,506,538,563,567,531,465,416,374,366,384,402,412,401,382,370,390,421,441,456,458,452,456,478,506,517,522,521,511,490,472,455,443,432,421,433,436,417,395,385,396,425,430,401,368,330,298,284,296,312,344,380,391,394,400,424,461,489,509,526,521,497,487,484,471,424,375,349,361,380,416,454,479,506,517,491,449,417,402,394,387,373,344,294,245,239,246,259,274,286,307,323,337,361,387,405,431,440,446,453,457,481,516,539,530,508,487,477,444,412,370,353,365,380,399,413,414,383,350,341,356,385,407,429,453,472,493,514,522,542,567,584,623,635,714,749,792,803,812,851,867,858,871,898,921,906,902,899,924,940,929,906,934,976,1014,1043,1043,1054,1044,1046,1054,1041,1029,1036,1010,985,988,990,999,1038,1059,1058,1071,1101,1136,1185,1230,1271,1299,1335,1353,1334,1306,1267,1225,1189,1152,1103,1061,1040,1014,979,941,918,906,896,899,887,863,820,770,722,675,655,675,698,660,621,608,608,607,592,570,547,526,511,491,465,445,440,427,416,419,413,404,400,391,374,355,336,333,339,355,372,389,411,453,498,543,569,555,517,487,453,449,448,443,442,452,465,490,506,512,501,490,534,583,624,657,670,670,669,649,608,564,544,558,581,591,596,609,612,609,632,662,679,690,692,691,690,699,708,731,733,721,703,703,710,741,786,809,817,806,806,812,808,802,820,826,849,882,914,959,1005,1017,1000,991,1026,1060,1067,1051,1035,1034,1057,1080,1108,1148,1190,1225,1261,1301,1341,1373,1369,1363,1364,1374,1385,1404,1428,1458,1487,1510,1537,1558,1551,1519,1487,1475,1467,1454,1423,1387,1347,1308,1298,1305,1291,1252,1225,1224,1227,1205,1168,1141,1125,1094,1076,1067,1050,1025,1004,993,1009,1058,1092,1085,1042,1012,1008,998,987,999,1009,982,956,961,955,933,911,898,869,840,817,798,789,792,791,785,773,769,807,851,888,905,903,890,867,842,839,854,869,890,926,958,1009,1068,1115,1157,1190,1213,1221,1235,1259,1282,1302,1304,1298,1304,1316,1345,1365,1394,1426,1472,1520,1564,1586,1574,1555,1531,1512,1516,1536,1579,1625,1664,1704,1746,1768,1749,1733,1714,1672,1648,1626,1617,1608,1589,1553,1511,1464,1426,1369,1306,1239,1180,1123,1050,967,897,860,876,920,925,886,852,829,831,841,836,821,801,781,766,749,733,707,688,666,644,611,574,546,526,510,484,460,452,454,448,438,432,427,417,411,413,419,422,414,400,385,369,355,344,338,331,316,306,301,297,294,292,301,405,454,509,569,626,719,765,786,799,827,883,921,951,993,1029,1070,1114,1153,1184,1178,1146,1118,1088,1056,1019,1010,1040,1088,1114,1104,1071,1031,993,986,977,996,1038,1083,1111,1089,1045,1028,1072,1118,1148,1175,1206,1237,1276,1318,1373,1435,1486,1505,1500,1491,1477,1455,1448,1443,1428,1412,1391,1368,1355,1358,1355,1347,1322,1290,1257,1228,1209,1226,1212,1186,1163,1154,1128,1124,1154,1169,1162,1147,1121,1085,1045,1039,1044,1037,1025,1010,1010,1047,1087,1107,1138,1170,1203,1226,1238,1235,1217,1201,1191,1191,1199,1214,1239,1258,1262,1256,1249,1227,1208,1194,1176,1156,1127,1098,1083,1076,1063,1044,1022,997,974,951,930,917,908,891,862,836,816,798,793,788,768,742,712,704,716,701,678,664,626,584,559,553,553,561,543,518,496,476,448,412,374,361,399,445,462,473,476,474,470,453,436,453,496,549,595,631,655,673,704,686,642,618,581,540,563,603,654,684,659,616,564,535,522,516,508,506,485,442,405,356,320,341,396,441,484,530,566,586,583,565,560,551,521,496,493,474,462,430,428,440,420,410,411,426,431,433,419,430,458,454,451,467,492,524,552,569,564,550,560,580,607,645,667,656,633,619,625,635,638,641,645,648,661,673,680,689,703,720,733,740,757,783,824,871,910,943,970,983,986,991,1003,1019,1044,1068,1088,1099,1113,1134,1160,1182,1190,1208,1261,1296,1326,1364,1394,1426,1453,1488,1533,1575,1591,1577,1551,1525,1517,1517,1497,1467,1456,1450,1444,1428,1427,1440,1461,1485,1500,1492,1488,1491,1492,1468,1436,1406,1376,1347,1304,1258,1221,1198,1165,1135,1114,1080,1055,1054,1038,1005,979,964,950,937,923,908,888,854,822,803,791,788,782,782,774,753,724,698,684,673,647,636,633,621,608,600,589,571,560,579,582,566,544,535,534,550,575,606,629,627,573,530,482,432,383,332,283,281,278,280,297,332,390,441,489,519,559,589,613,635,659,686,711,698,669,633,606,584,546,510,474,453,435,416,387,374,390,428,465,491,522,564,608,656,710,745,745,733,723,715,706,699,692,685,702,731,744,761,783,815,851,886,926,982,1031,1083,1108,1086,1058,1034,1010,981,949,915,894,897,918,918,915,903,890,884,880,866,840,814,793,767,745,727,706,689,673,657,636,615,597,581,564,552,544,538,532,504,471,433,398,362,337,314,302,317,350,401,460,512,559,591,616,610,589,561,528,502,489,477,470,459,445,437,427,414,408,400,385,363,344,325,306,282,284,324,340,316,299,315,338,351,358,375,393,412,429,439,457,492,525,544,543,538,541,539,547,571,598,620,619,602,589,575,560,541,526,510,493,474,458,454,451,440,426,411,398,392,383,373,355,339,319,300,284,276
414,446,459,460,460,459,451,427,391,370,378,400,420,420,415,406,395,374,359,367,386,393,394,390,373,356,366,385,374,364,361,350,333,317,307,305,311,317,319,312,308,309,307,302,296,297,294,289,293,297,293,291,287,282,281,278,276,282,289,310,344,364,379,399,415,427,446,464,478,479,461,439,412,387,413,458,501,525,542,542,514,482,448,418,383,363,358,342,334,346,351,356,365,375,396,428,473,502,523,539,554,577,589,563,516,470,425,390,370,396,431,446,436,405,377,388,408,425,440,464,477,481,490,499,526,550,548,519,513,506,492,475,460,453,463,463,441,422,406,406,426,427,394,353,315,295,311,335,347,363,390,418,423,417,414,436,459,478,494,506,511,511,497,462,421,374,370,395,411,419,448,477,502,524,501,470,450,443,442,431,419,382,329,265,242,248,265,295,300,293,296,305,310,332,373,409,445,492,496,495,517,550,584,577,555,538,525,503,460,433,411,419,419,424,424,424,413,384,362,347,352,371,395,417,440,461,466,457,465,491,513,549,614,669,710,741,774,805,846,882,895,905,921,939,953,956,960,975,982,970,970,986,1012,1038,1057,1078,1094,1102,1101,1103,1098,1089,1084,1057,1055,1069,1048,1037,1073,1107,1116,1134,1166,1202,1234,1264,1296,1341,1375,1377,1343,1292,1246,1198,1164,1128,1096,1091,1061,1047,995,958,935,953,935,905,858,816,773,736,713,720,757,763,720,678,665,675,674,659,632,610,586,560,539,514,487,465,449,442,441,438,432,431,430,414,392,361,338,337,339,358,370,378,395,434,477,511,503,475,440,410,416,422,436,451,471,489,511,534,561,573,537,491,513,569,606,635,641,632,627,613,571,531,557,606,639,656,663,671,663,639,638,661,702,734,749,749,741,736,731,744,767,767,760,748,728,728,768,805,829,822,826,836,834,831,843,856,858,871,896,945,990,1027,1045,1032,1038,1076,1110,1100,1085,1081,1088,1119,1142,1169,1194,1222,1259,1292,1338,1365,1362,1361,1367,1385,1400,1420,1436,1452,1482,1507,1529,1545,1535,1506,1461,1428,1419,1408,1389,1363,1326,1283,1248,1252,1251,1227,1191,1175,1179,1163,1133,1103,1080,1060,1044,1030,1016,1009,1008,1027,1058,1102,1147,1124,1082,1061,1071,1067,1045,1039,1037,1012,1003,1009,993,968,954,938,906,869,837,821,814,811,807,800,792,789,796,833,879,920,950,957,931,894,875,884,889,879,886,918,956,1041,1090,1117,1129,1142,1154,1167,1188,1205,1229,1236,1235,1249,1277,1308,1348,1394,1437,1473,1504,1530,1532,1514,1490,1465,1450,1472,1510,1553,1597,1642,1692,1732,1719,1688,1673,1651,1629,1605,1594,1599,1590,1573,1541,1493,1443,1368,1301,1251,1190,1133,1047,983,925,897,889,932,981,969,938,904,884,881,887,874,854,833,811,789,766,743,711,687,670,647,611,571,543,524,497,475,478,480,476,466,459,455,450,439,436,441,448,450,442,424,412,401,389,374,362,345,324,308,304,302,300,298,294,336,413,482,547,580,685,796,832,864,908,960,984,992,1018,1039,1074,1117,1153,1177,1192,1194,1179,1141,1109,1079,1066,1072,1097,1131,1136,1106,1073,1042,1039,1033,1025,1055,1100,1144,1143,1103,1080,1093,1146,1197,1230,1260,1293,1320,1353,1408,1467,1495,1492,1480,1465,1448,1430,1415,1407,1396,1383,1366,1345,1332,1328,1321,1311,1291,1268,1258,1257,1261,1280,1272,1245,1228,1214,1195,1195,1213,1211,1196,1173,1145,1108,1081,1098,1109,1101,1084,1054,1014,1020,1057,1085,1119,1142,1171,1187,1195,1187,1169,1159,1165,1183,1206,1231,1250,1266,1277,1277,1259,1229,1208,1191,1167,1143,1120,1100,1084,1062,1043,1022,1003,984,971,947,922,899,883,873,853,833,810,779,759,761,750,738,711,685,689,676,651,637,619,584,547,515,510,519,510,485,454,426,407,415,416,440,469,496,520,539,546,544,530,514,493,473,486,521,559,584,607,648,692,710,689,644,604,566,571,613,662,695,675,635,595,585,583,576,559,543,520,466,427,389,344,331,374,427,474,522,566,595,613,620,614,606,572,555,540,527,518,473,453,469,472,457,458,467,479,456,434,427,429,434,450,482,517,558,579,599,614,620,622,635,653,673,703,708,687,676,692,700,699,698,696,688,690,702,700,711,736,753,770,775,779,777,787,826,866,887,905,920,927,930,949,975,1004,1022,1033,1048,1065,1085,1106,1140,1174,1202,1231,1258,1300,1328,1361,1398,1427,1462,1495,1549,1587,1591,1570,1543,1535,1529,1510,1504,1501,1498,1487,1470,1468,1483,1500,1521,1532,1520,1508,1496,1468,1434,1397,1362,1329,1308,1280,1239,1197,1160,1133,1106,1082,1057,1022,1004,989,963,938,920,906,891,879,865,846,820,807,786,772,761,747,737,732,720,698,679,667,655,653,670,680,671,660,645,635,601,566,547,542,527,508,504,499,504,525,547,565,583,586,561,521,470,423,391,351,315,322,310,291,302,363,440,500,540,578,616,652,675,691,710,721,695,662,620,588,567,544,525,509,501,479,452,421,392,383,402,436,478,528,576,622,661,705,707,691,679,675,669,666,656,650,663,685,706,738,775,807,838,873,905,937,990,1037,1088,1125,1117,1091,1069,1045,1022,981,947,937,951,964,962,955,947,932,911,890,865,838,812,794,777,755,732,710,693,672,644,621,601,582,564,546,529,516,503,498,495,479,445,408,377,348,319,306,327,369,416,466,519,565,610,615,595,570,547,523,503,489,471,460,447,442,433,419,406,398,392,384,365,339,328,304,292,319,356,361,332,315,318,339,362,382,391,399,413,427,438,458,486,522,562,572,572,576,575,580,595,618,631,625,607,594,585,576,558,536,522,513,498,486,475,461,447,435,423,412,403,402,398,380,361,352,340,325,313
393,406,415,415,414,412,415,408,386,362,356,377,386,375,367,366,361,356,337,323,323,321,322,322,324,328,350,352,337,324,315,304,292,291,289,289,288,288,289,288,287,288,288,287,286,289,288,287,284,286,283,278,282,284,289,299,308,323,341,377,404,419,428,441,456,472,488,516,530,520,493,469,430,407,429,478,526,548,537,512,479,438,409,391,401,408,400,370,367,389,406,418,432,450,464,505,538,562,584,601,607,607,592,552,512,478,435,398,378,394,436,466,460,426,395,397,415,431,452,481,511,524,522,505,516,558,577,560,562,556,546,518,499,497,504,492,473,451,428,422,431,431,398,357,324,318,357,376,391,410,431,463,467,451,439,439,456,467,473,477,474,475,464,436,401,374,396,437,456,451,453,469,496,526,537,520,498,483,460,448,430,403,350,279,238,243,264,305,331,329,334,340,337,321,322,364,426,477,508,520,541,569,578,574,568,560,552,528,502,483,465,459,451,449,451,440,436,424,403,384,370,362,361,365,383,405,411,406,411,428,463,496,545,620,653,682,731,773,790,818,853,873,889,909,933,954,961,967,976,973,967,970,988,1008,1035,1056,1069,1081,1094,1102,1107,1114,1122,1122,1123,1120,1102,1097,1118,1157,1180,1201,1234,1270,1292,1306,1321,1338,1366,1389,1365,1316,1264,1216,1165,1140,1140,1137,1084,1047,1012,975,955,940,920,889,857,808,793,784,799,822,817,777,738,727,733,737,726,694,661,637,609,580,549,525,498,483,469,454,446,441,430,415,398,374,357,346,341,343,344,346,353,366,386,414,443,451,441,438,421,424,434,449,463,495,518,540,561,581,602,606,572,518,487,526,561,587,590,575,574,570,543,539,591,640,682,715,728,732,707,684,673,655,669,721,765,796,792,781,769,756,772,797,818,803,772,745,755,792,823,835,843,859,872,878,882,894,910,922,926,934,972,1031,1077,1079,1079,1105,1150,1148,1142,1137,1140,1165,1199,1224,1245,1269,1296,1323,1351,1361,1355,1366,1387,1410,1431,1442,1444,1453,1476,1504,1522,1523,1499,1470,1427,1387,1372,1357,1342,1319,1285,1250,1218,1197,1191,1178,1157,1134,1122,1108,1088,1074,1063,1054,1052,1042,1039,1039,1033,1048,1091,1135,1197,1175,1129,1114,1133,1122,1099,1093,1077,1048,1049,1045,1028,1010,992,964,927,891,874,860,840,836,829,818,810,803,799,814,870,929,967,999,994,960,945,950,960,928,896,898,936,1009,1033,1049,1058,1074,1085,1107,1117,1144,1166,1172,1188,1222,1265,1309,1359,1405,1436,1445,1448,1463,1462,1443,1417,1392,1424,1472,1512,1552,1598,1640,1682,1711,1708,1668,1624,1590,1565,1550,1537,1540,1524,1502,1481,1445,1382,1330,1275,1229,1138,1092,1007,961,936,943,934,959,1005,1000,979,958,943,937,925,904,878,848,820,776,749,716,689,668,652,624,592,567,545,520,495,488,501,501,498,490,490,488,489,483,480,481,485,482,473,461,448,435,421,398,374,346,321,309,304,302,298,292,291,311,366,445,499,538,560,748,868,885,910,954,972,963,969,1009,1063,1092,1105,1117,1140,1169,1192,1185,1158,1133,1126,1121,1132,1155,1174,1155,1118,1098,1094,1092,1075,1085,1117,1171,1183,1166,1132,1139,1178,1220,1264,1303,1346,1375,1412,1456,1484,1484,1471,1457,1439,1420,1404,1386,1380,1371,1360,1348,1344,1343,1330,1318,1313,1306,1282,1287,1303,1314,1328,1326,1307,1294,1276,1249,1243,1255,1248,1226,1200,1169,1135,1132,1158,1171,1154,1122,1087,1066,1054,1050,1054,1070,1084,1108,1120,1131,1141,1140,1140,1166,1196,1216,1235,1250,1264,1270,1266,1249,1231,1214,1190,1168,1151,1131,1111,1090,1067,1046,1028,1005,969,941,933,913,895,870,845,835,816,793,766,741,744,741,725,698,667,642,619,593,577,566,564,538,496,474,475,471,444,417,409,420,457,481,503,518,544,582,596,596,576,560,546,528,501,496,524,551,571,606,635,675,710,708,663,619,587,583,620,671,712,700,671,650,647,633,602,575,561,539,499,458,415,365,334,368,418,475,520,565,594,619,644,669,662,638,620,599,586,563,517,483,493,520,519,516,524,531,504,476,465,458,455,447,450,472,513,532,560,603,641,663,680,703,721,739,750,748,737,743,751,747,745,749,742,732,739,739,748,770,793,814,826,818,804,797,813,828,836,849,870,886,908,921,938,960,976,993,1018,1038,1059,1089,1129,1165,1192,1215,1242,1276,1305,1340,1380,1415,1457,1496,1537,1556,1555,1536,1511,1501,1499,1499,1504,1508,1511,1506,1494,1500,1514,1526,1533,1534,1515,1492,1475,1437,1401,1366,1334,1299,1267,1237,1211,1186,1166,1155,1138,1113,1079,1038,1000,983,963,943,935,924,902,885,867,859,850,849,838,823,802,773,755,739,721,714,712,706,704,713,732,743,736,722,711,684,648,613,591,577,563,550,532,512,492,478,484,498,515,521,514,498,473,436,412,384,363,336,306,288,322,373,432,485,544,604,642,677,701,716,717,699,669,633,604,594,580,570,562,559,545,525,493,469,439,419,406,416,462,509,551,598,640,674,674,658,642,632,625,621,620,646,682,713,742,775,811,836,873,906,940,972,1016,1061,1108,1148,1151,1129,1096,1074,1044,1006,982,986,998,1003,994,984,971,951,927,903,881,860,841,824,803,778,744,719,696,676,652,631,607,592,570,547,523,505,487,467,457,452,433,409,385,350,320,329,361,396,441,482,520,568,608,623,604,574,554,538,517,499,483,465,455,448,433,414,395,385,382,374,353,330,317,317,333,367,383,365,343,330,328,347,366,388,411,424,435,441,453,477,502,536,572,602,610,609,615,617,623,639,644,631,616,605,593,583,569,550,537,532,520,507,495,480,463,451,443,435,434,440,432,416,400,391,378,360,347
371,374,377,378,376,371,365,361,352,348,343,348,342,334,330,330,321,313,305,299,299,297,298,297,299,301,307,308,300,296,291,291,291,291,291,292,291,290,289,288,286,287,291,300,312,319,328,330,327,319,315,320,319,331,351,361,372,388,410,436,452,469,483,494,509,520,538,545,529,498,464,442,411,411,446,491,541,549,522,486,467,457,434,435,451,450,434,403,411,450,487,506,516,531,543,564,594,614,627,608,589,576,554,525,491,455,408,389,391,405,431,453,451,422,398,401,421,438,464,497,533,559,555,532,538,580,625,627,619,616,602,579,547,551,547,534,508,477,456,456,445,430,404,369,341,355,393,407,422,446,476,508,513,498,485,485,492,490,481,470,450,439,439,419,397,382,404,433,464,489,493,501,523,550,574,565,530,494,454,421,396,374,342,288,249,237,267,309,344,357,368,377,373,345,322,342,395,442,465,484,505,522,545,562,566,568,560,552,546,528,508,485,479,481,483,464,454,456,448,428,409,396,391,378,368,373,383,386,379,385,411,465,503,559,594,635,691,707,728,762,795,817,842,874,905,920,922,922,923,923,916,917,933,965,990,998,1004,1018,1034,1044,1059,1079,1119,1145,1148,1138,1126,1130,1147,1178,1223,1264,1287,1302,1299,1294,1300,1325,1355,1390,1371,1324,1277,1217,1187,1187,1192,1174,1111,1064,1035,1017,1006,984,953,905,865,831,834,858,884,885,846,808,793,801,798,781,752,716,687,654,619,582,554,534,513,495,477,459,446,428,402,381,364,356,356,357,353,343,347,348,343,345,356,374,399,414,440,447,433,472,512,554,511,519,552,583,608,631,644,632,596,561,518,499,516,529,530,525,526,524,530,573,622,670,711,749,775,777,757,734,719,685,661,699,750,791,819,815,803,794,798,804,828,833,808,774,758,788,825,841,855,872,896,919,934,956,982,999,992,985,988,1030,1078,1110,1134,1154,1183,1206,1208,1202,1198,1215,1247,1277,1293,1311,1334,1355,1362,1360,1356,1381,1412,1429,1437,1445,1453,1467,1485,1507,1518,1506,1478,1445,1406,1367,1334,1303,1282,1265,1244,1223,1201,1191,1178,1159,1134,1120,1113,1110,1106,1094,1079,1085,1088,1069,1067,1077,1063,1057,1094,1138,1208,1218,1190,1182,1197,1194,1178,1152,1125,1106,1097,1087,1063,1038,1012,986,963,946,922,900,883,869,850,838,834,825,820,814,847,905,961,1003,1029,1016,1018,1026,1021,992,948,937,950,967,976,982,983,997,1003,1025,1062,1097,1121,1149,1194,1244,1284,1315,1351,1380,1387,1375,1382,1401,1395,1376,1354,1369,1418,1465,1510,1555,1594,1605,1639,1685,1706,1668,1619,1579,1540,1506,1484,1473,1461,1434,1410,1395,1365,1314,1264,1224,1155,1086,1059,980,1001,999,988,999,1031,1040,1028,1018,1006,992,966,920,879,833,795,747,711,682,651,629,604,582,569,546,528,518,508,506,522,528,529,528,529,526,532,531,521,521,518,514,510,499,482,466,443,414,387,353,331,314,307,305,301,293,291,314,358,401,458,506,563,659,746,796,834,870,880,903,964,1022,1058,1048,1035,1050,1084,1118,1159,1196,1202,1188,1177,1173,1173,1194,1217,1207,1174,1162,1159,1155,1138,1130,1148,1188,1221,1215,1196,1191,1206,1247,1295,1335,1382,1425,1464,1483,1478,1462,1447,1432,1416,1398,1385,1376,1366,1354,1348,1353,1363,1366,1351,1343,1333,1317,1295,1295,1323,1332,1344,1345,1331,1313,1287,1268,1272,1289,1290,1266,1245,1201,1158,1172,1205,1215,1192,1159,1142,1132,1123,1119,1107,1095,1081,1085,1085,1091,1104,1117,1131,1156,1170,1184,1204,1222,1233,1236,1240,1239,1237,1224,1204,1175,1149,1124,1105,1085,1062,1045,1028,1001,964,924,898,884,867,841,822,813,796,777,756,734,719,707,688,671,651,628,607,571,536,509,507,496,466,444,431,424,420,419,433,463,507,540,561,584,611,631,632,608,590,575,556,530,508,518,566,596,620,643,665,692,720,731,690,644,610,600,625,661,714,740,732,705,689,654,618,600,590,567,527,471,420,367,337,372,421,474,519,561,590,624,650,683,699,691,678,650,621,583,542,515,521,553,575,576,581,581,549,532,522,508,513,500,470,459,464,489,529,577,625,663,699,729,751,769,791,802,801,797,804,802,803,805,795,786,785,790,792,800,835,863,872,863,846,839,844,854,867,879,892,913,941,966,978,993,1007,1008,1034,1058,1080,1105,1126,1163,1209,1247,1278,1301,1327,1355,1397,1438,1487,1515,1511,1501,1496,1492,1478,1466,1465,1472,1482,1484,1482,1480,1482,1490,1497,1496,1497,1503,1503,1479,1457,1432,1402,1370,1340,1307,1273,1251,1235,1225,1218,1203,1177,1139,1086,1050,1033,1025,1002,989,989,982,955,923,904,906,902,907,907,881,846,813,798,794,780,772,772,765,761,766,778,785,781,777,768,737,699,676,664,654,644,630,606,583,547,504,474,453,459,463,453,436,410,396,367,343,323,294,282,305,348,397,453,500,551,596,629,679,711,722,700,673,651,637,625,621,614,609,607,608,600,575,539,517,487,456,423,425,466,510,556,602,639,643,628,613,601,590,586,604,640,679,722,760,791,819,849,876,907,932,966,1008,1041,1069,1100,1140,1156,1142,1115,1090,1064,1037,1021,1026,1027,1015,982,966,945,926,914,900,887,872,861,841,815,784,755,734,717,698,678,653,622,601,576,556,530,508,490,472,452,430,406,384,368,344,332,361,402,432,463,505,546,595,637,649,630,607,581,567,553,535,518,498,482,465,443,421,405,392,385,368,341,336,352,369,388,395,381,361,349,342,345,368,395,405,418,440,466,473,474,495,525,565,594,624,639,641,648,652,655,662,659,645,628,613,605,597,584,565,552,549,539,525,515,503,487,477,479,480,486,481,469,456,444,432,412,393,377
333,340,347,348,346,337,325,314,311,310,312,316,311,308,307,304,302,300,298,298,299,299,297,297,294,295,295,294,294,294,296,296,297,301,305,306,305,303,302,303,305,319,339,355,369,386,400,418,428,395,369,376,402,407,420,436,455,457,459,487,504,525,538,548,559,568,563,522,467,421,419,414,405,438,482,517,541,538,522,509,510,508,486,494,512,519,497,468,476,514,555,576,582,599,612,621,641,634,589,538,501,494,488,479,461,430,404,395,413,421,423,438,441,416,403,407,421,437,462,490,526,557,570,569,577,614,671,690,688,683,660,643,621,610,593,570,539,503,491,471,448,425,402,379,362,371,392,410,427,447,484,510,537,530,528,538,539,521,493,468,445,422,408,397,388,396,425,451,472,496,523,541,564,595,599,570,536,502,472,444,409,369,337,295,258,239,270,320,339,354,372,396,408,384,355,336,352,393,430,454,470,491,518,544,558,570,582,592,587,570,540,518,516,520,511,484,476,499,510,484,458,446,445,430,418,422,424,430,421,408,392,418,464,509,545,592,628,653,689,716,738,766,810,845,866,874,872,873,873,866,866,875,898,931,942,944,948,960,971,989,1019,1058,1097,1104,1088,1074,1066,1075,1101,1160,1205,1243,1268,1261,1248,1247,1278,1314,1354,1388,1378,1333,1281,1233,1231,1250,1317,1260,1196,1106,1075,1076,1050,1031,994,929,883,853,886,932,940,917,889,868,865,864,845,807,767,730,695,662,623,591,571,555,528,503,474,453,429,401,377,367,368,377,389,393,376,354,344,343,343,344,358,384,406,424,450,475,508,555,649,604,563,557,575,601,639,672,683,666,627,594,556,529,518,509,516,527,541,554,573,602,645,693,731,768,802,811,800,777,753,716,684,684,710,750,791,809,833,850,854,836,839,855,844,812,782,782,811,832,847,863,883,911,950,991,1037,1064,1052,1035,1024,1058,1094,1132,1180,1201,1222,1250,1263,1260,1255,1261,1284,1299,1298,1301,1312,1330,1343,1358,1368,1394,1423,1437,1444,1454,1463,1479,1498,1520,1534,1532,1512,1478,1435,1394,1351,1303,1265,1247,1238,1230,1238,1240,1229,1200,1160,1144,1159,1163,1146,1111,1109,1125,1117,1098,1106,1107,1080,1065,1097,1144,1211,1237,1242,1236,1253,1259,1242,1215,1184,1161,1146,1121,1092,1066,1044,1024,1010,990,966,944,926,905,880,862,856,855,850,834,831,864,925,977,1027,1064,1091,1084,1064,1041,1014,991,996,1006,1005,1008,1002,996,1006,1000,1030,1078,1116,1153,1197,1233,1252,1272,1301,1330,1327,1307,1312,1332,1327,1317,1335,1380,1426,1467,1504,1525,1545,1569,1618,1660,1690,1668,1625,1573,1538,1494,1455,1417,1394,1354,1334,1316,1284,1253,1211,1220,1201,1118,1086,1073,1114,1073,1053,1050,1067,1084,1080,1071,1051,1016,974,922,876,835,790,746,700,661,626,608,596,585,578,566,557,551,545,541,557,567,567,574,576,572,571,563,561,561,557,550,539,524,506,481,454,424,394,361,339,325,317,307,304,295,290,306,346,393,435,466,546,580,664,747,775,791,827,900,980,1015,1009,981,964,988,1038,1090,1134,1179,1208,1211,1209,1210,1217,1235,1254,1254,1239,1229,1228,1224,1205,1193,1198,1219,1257,1267,1258,1249,1255,1292,1346,1377,1424,1471,1497,1491,1476,1455,1439,1425,1412,1404,1397,1390,1382,1375,1372,1376,1381,1367,1340,1328,1329,1317,1298,1296,1299,1315,1329,1330,1324,1301,1280,1280,1299,1322,1323,1299,1272,1229,1192,1191,1204,1225,1233,1223,1203,1188,1177,1169,1151,1131,1123,1124,1123,1112,1098,1106,1114,1127,1136,1154,1174,1199,1214,1217,1227,1235,1230,1211,1191,1169,1142,1126,1104,1081,1063,1042,1016,991,965,942,918,901,877,854,832,810,788,775,771,765,747,725,710,704,698,682,656,604,557,514,483,458,444,450,456,447,454,489,508,518,534,573,615,628,650,675,672,643,610,585,558,525,524,547,578,610,633,662,691,724,752,760,728,675,640,620,646,682,723,761,772,743,694,654,626,604,593,570,533,479,422,371,338,362,425,481,523,562,599,631,661,689,713,733,727,686,634,596,578,556,545,570,604,627,637,630,585,583,584,565,569,555,530,504,479,471,498,543,595,640,683,715,746,773,800,823,832,842,855,864,868,865,858,841,842,850,846,851,878,907,928,908,896,895,895,911,931,940,950,956,977,1013,1041,1052,1055,1050,1060,1098,1139,1159,1169,1190,1231,1271,1318,1353,1379,1406,1440,1481,1509,1495,1463,1444,1441,1440,1432,1418,1415,1431,1440,1440,1440,1442,1444,1452,1447,1447,1459,1469,1477,1475,1468,1458,1432,1395,1357,1335,1320,1300,1283,1264,1243,1204,1158,1125,1096,1073,1076,1053,1041,1041,1041,1023,985,964,952,956,959,960,955,920,871,850,853,853,836,828,826,820,817,819,829,842,845,838,821,795,764,747,731,716,696,669,631,603,558,510,472,442,431,422,395,368,369,354,333,320,304,283,286,308,348,401,446,475,504,539,581,637,689,717,717,702,686,674,661,647,640,639,654,663,646,614,580,556,521,485,436,433,461,501,544,579,607,605,580,563,556,573,605,643,679,718,756,793,819,840,860,887,906,912,930,962,987,1010,1046,1085,1113,1128,1123,1106,1084,1065,1048,1034,1006,987,964,936,921,898,876,861,853,839,828,807,796,780,759,740,728,713,695,666,631,605,582,558,531,509,493,479,462,438,409,385,366,349,361,391,427,459,493,531,569,612,654,663,652,636,619,604,587,568,548,530,507,480,458,436,420,402,380,352,348,378,402,423,423,406,388,374,361,355,366,387,416,435,448,459,479,499,507,510,535,572,601,622,646,662,670,676,680,685,681,665,648,632,626,614,600,585,578,574,559,546,534,522,505,497,507,525,533,522,513,498,484,470,451,431,412
312,310,312,318,319,312,309,306,305,306,304,303,302,302,301,299,299,300,301,301,301,301,303,303,301,300,298,297,298,301,311,316,322,322,328,332,338,342,346,345,334,359,392,422,442,473,489,520,513,473,473,513,474,486,504,523,541,518,506,544,568,576,593,603,608,595,552,487,433,433,461,458,451,463,491,515,529,542,545,541,544,546,536,549,581,586,573,536,516,534,602,646,664,679,682,674,647,587,534,468,458,462,447,429,420,411,403,410,440,447,429,430,438,428,420,422,429,443,461,483,505,530,564,597,633,676,725,756,757,748,718,696,678,658,630,600,545,491,466,442,425,411,393,383,388,382,397,417,436,459,485,505,527,544,556,576,564,525,483,449,431,413,399,392,400,408,432,471,502,520,537,557,579,590,578,547,501,458,438,426,391,346,314,280,253,241,271,329,353,363,377,396,422,430,404,368,341,355,395,419,438,455,467,499,537,559,580,600,617,602,579,561,568,571,543,509,498,531,549,536,517,506,496,482,478,472,457,453,461,444,418,401,423,451,496,535,575,611,651,663,702,749,786,811,820,811,803,815,818,812,820,840,866,880,883,884,886,904,926,968,1017,1058,1072,1054,1032,1015,1009,1026,1066,1117,1152,1195,1210,1198,1200,1230,1274,1315,1358,1389,1395,1350,1296,1272,1292,1337,1395,1371,1233,1149,1126,1098,1086,1097,1063,1007,918,885,938,1009,987,962,948,927,908,886,859,819,775,735,700,668,630,600,579,557,522,487,462,435,405,383,374,379,400,420,430,430,412,383,354,344,342,343,352,373,395,427,465,510,581,636,651,644,632,619,616,624,658,698,714,697,665,633,595,574,566,556,561,570,590,615,636,651,669,696,739,782,821,841,835,813,783,751,725,708,709,729,758,795,844,888,902,874,868,890,881,851,821,796,796,815,831,849,871,907,954,1004,1052,1099,1106,1087,1081,1100,1128,1160,1202,1242,1268,1273,1260,1253,1263,1262,1255,1249,1242,1240,1257,1294,1330,1365,1381,1402,1432,1452,1458,1462,1473,1488,1508,1531,1553,1564,1542,1503,1458,1402,1350,1305,1283,1288,1273,1261,1287,1294,1267,1219,1176,1169,1196,1202,1166,1135,1148,1165,1152,1139,1144,1126,1103,1083,1101,1143,1192,1237,1270,1283,1299,1303,1289,1266,1244,1220,1196,1164,1134,1105,1080,1061,1044,1025,1001,978,955,930,917,904,888,874,866,853,833,846,913,961,1011,1072,1129,1130,1118,1095,1084,1071,1077,1091,1088,1077,1063,1059,1056,1038,1019,1045,1090,1140,1167,1181,1193,1222,1255,1270,1261,1249,1251,1266,1267,1299,1350,1392,1420,1434,1444,1470,1511,1554,1602,1654,1694,1677,1632,1584,1539,1501,1468,1431,1404,1362,1320,1273,1240,1215,1222,1249,1230,1190,1167,1164,1167,1144,1133,1120,1122,1125,1115,1096,1068,1019,969,926,891,860,834,797,743,674,642,634,636,635,630,626,619,612,607,604,615,621,615,620,620,613,613,609,610,602,587,571,555,544,526,501,468,432,402,375,350,333,326,311,304,299,292,302,336,377,418,456,509,571,613,675,711,770,826,890,925,929,914,903,923,962,1005,1057,1094,1118,1143,1162,1176,1191,1206,1225,1243,1262,1275,1286,1293,1289,1262,1259,1262,1275,1300,1334,1328,1325,1319,1337,1387,1435,1480,1506,1506,1491,1477,1463,1450,1439,1435,1427,1419,1412,1407,1400,1392,1382,1367,1352,1338,1344,1346,1328,1314,1319,1304,1299,1305,1313,1316,1297,1291,1309,1325,1341,1329,1304,1266,1235,1223,1218,1225,1231,1252,1253,1238,1215,1199,1185,1172,1166,1163,1166,1155,1134,1112,1123,1136,1134,1132,1152,1184,1212,1232,1234,1234,1236,1225,1206,1190,1168,1148,1128,1107,1082,1064,1042,1017,984,955,930,907,892,872,856,846,832,817,812,810,800,786,772,758,743,725,698,666,621,579,541,513,473,466,494,505,508,522,550,577,561,557,599,649,669,692,706,705,673,631,591,565,548,541,563,584,595,633,666,696,727,767,786,759,715,677,651,670,715,745,774,778,733,692,654,629,603,579,539,506,465,419,379,343,369,442,495,538,574,605,636,663,693,724,751,753,709,661,635,625,607,583,582,622,656,684,671,631,626,644,633,626,610,582,548,512,481,489,528,577,619,655,686,717,745,775,800,816,834,850,871,897,921,921,901,899,909,908,918,942,961,975,953,951,953,959,976,994,1001,1015,1015,1014,1045,1078,1103,1109,1096,1098,1125,1162,1204,1228,1240,1275,1312,1346,1392,1430,1465,1494,1513,1500,1466,1432,1397,1389,1392,1389,1377,1375,1388,1389,1385,1384,1395,1405,1407,1402,1402,1414,1430,1443,1460,1470,1467,1453,1427,1400,1387,1372,1344,1317,1269,1231,1189,1155,1134,1135,1130,1113,1085,1090,1099,1087,1055,1040,1025,1005,1008,1023,1018,996,942,913,904,911,914,903,891,894,893,888,890,894,909,910,892,867,838,814,792,760,730,690,656,622,592,550,519,482,455,439,434,407,396,406,397,368,354,332,310,305,300,302,334,374,418,466,506,564,606,654,706,740,744,731,712,705,687,673,681,709,714,687,653,628,593,560,512,470,449,442,467,500,537,565,560,536,535,566,609,645,687,723,756,788,813,817,818,821,837,849,860,884,905,928,971,1017,1055,1082,1090,1106,1116,1102,1076,1050,1020,992,968,946,920,897,873,846,829,818,806,793,774,754,741,725,709,692,688,683,666,642,619,596,571,546,521,492,465,445,425,393,369,371,390,405,436,458,489,526,563,601,638,660,656,639,629,620,611,596,577,555,530,513,493,470,448,425,399,368,355,382,420,445,449,435,416,401,389,372,368,385,403,430,451,475,490,508,521,534,538,553,574,599,615,630,650,668,689,707,710,703,686,667,655,647,634,622,615,610,604,589,571,553,542,534,536,547,571,576,567,554,538,518,499,478,455,443
314,311,309,309,309,308,307,306,305,305,306,308,307,305,304,308,311,314,318,316,316,318,319,322,323,325,325,318,322,335,347,355,359,356,364,379,384,401,422,417,383,359,423,479,514,558,590,618,596,580,529,545,566,578,592,609,609,577,559,588,619,636,649,643,621,576,522,469,440,478,501,497,487,488,491,505,528,556,573,579,583,598,608,624,651,649,628,594,560,585,641,684,726,746,732,686,626,565,496,470,503,511,498,465,445,431,421,422,429,444,451,446,460,466,465,454,444,459,473,488,509,536,571,615,677,729,776,809,824,797,759,731,698,659,606,568,519,458,429,423,410,400,402,412,412,397,406,437,463,485,502,520,533,550,567,583,573,537,500,469,440,418,407,413,429,423,428,456,499,524,534,542,544,545,538,532,495,447,403,379,346,288,257,244,244,260,294,329,357,374,385,403,428,452,457,420,374,358,354,380,402,414,427,459,504,527,544,562,604,621,614,605,606,592,567,537,519,549,574,580,570,562,548,536,533,514,490,485,502,532,476,426,411,407,431,465,511,557,585,617,673,714,740,748,745,735,743,762,760,749,766,801,820,822,819,821,836,875,925,971,1009,1022,1015,998,983,957,960,996,1028,1059,1092,1147,1152,1148,1176,1228,1280,1315,1348,1355,1371,1358,1324,1318,1358,1408,1395,1349,1270,1202,1156,1151,1166,1161,1165,1119,1079,1045,1037,1061,1043,1021,994,950,902,863,839,809,767,728,698,666,633,599,563,527,498,471,444,410,387,380,391,423,442,455,457,449,435,403,369,348,344,345,346,353,376,404,439,473,508,548,592,619,645,658,649,645,662,704,734,725,693,666,630,617,613,608,609,616,620,659,685,700,712,713,734,782,831,868,868,846,816,786,758,743,747,742,770,810,858,915,930,906,897,916,909,886,860,826,817,822,825,849,880,910,935,991,1050,1108,1146,1141,1140,1155,1178,1198,1216,1230,1239,1226,1202,1194,1200,1212,1204,1189,1180,1197,1240,1278,1325,1365,1386,1403,1429,1456,1466,1468,1475,1490,1509,1533,1557,1562,1533,1485,1430,1383,1343,1319,1321,1331,1312,1299,1317,1325,1291,1234,1194,1195,1221,1228,1195,1160,1172,1201,1199,1191,1189,1158,1126,1106,1111,1143,1184,1237,1278,1305,1312,1301,1292,1281,1274,1262,1237,1212,1182,1146,1114,1093,1067,1048,1025,1000,978,959,940,919,894,872,852,839,839,869,918,968,1018,1086,1133,1159,1170,1153,1146,1144,1149,1158,1150,1142,1128,1127,1119,1089,1057,1039,1071,1109,1115,1118,1134,1169,1206,1209,1194,1189,1197,1224,1255,1302,1345,1357,1371,1398,1439,1473,1513,1552,1588,1642,1692,1679,1637,1605,1577,1541,1505,1476,1454,1419,1361,1330,1265,1275,1295,1295,1293,1257,1221,1224,1272,1254,1209,1192,1175,1164,1144,1110,1072,1033,989,951,919,898,882,861,823,739,681,676,681,683,681,683,679,675,665,662,672,678,672,679,674,669,666,668,662,645,623,603,585,567,546,520,484,457,423,392,362,342,331,316,306,303,293,294,320,358,395,430,485,567,616,646,695,752,804,812,800,791,803,856,910,934,973,1012,1037,1048,1068,1090,1111,1134,1154,1166,1183,1211,1246,1289,1319,1335,1329,1333,1337,1328,1361,1409,1413,1399,1409,1415,1441,1497,1529,1531,1521,1506,1491,1476,1467,1460,1451,1442,1434,1426,1408,1395,1386,1374,1354,1345,1349,1355,1346,1327,1320,1323,1314,1303,1296,1303,1306,1304,1315,1335,1341,1331,1308,1275,1253,1249,1240,1235,1236,1233,1244,1248,1238,1218,1204,1198,1194,1190,1187,1184,1169,1138,1115,1128,1146,1149,1147,1155,1176,1202,1224,1236,1235,1234,1223,1200,1175,1152,1135,1118,1096,1071,1048,1022,1001,989,975,954,939,922,902,892,880,865,851,844,832,815,802,788,767,737,705,657,619,601,571,540,509,478,487,538,569,573,566,585,623,608,594,601,656,689,723,741,721,667,627,604,602,587,556,564,602,620,652,686,720,755,788,814,805,768,727,689,692,730,775,807,785,741,698,660,632,606,583,552,514,468,424,386,344,366,432,488,526,569,600,627,660,689,725,757,775,752,713,690,668,646,619,611,636,671,707,711,682,676,694,690,678,652,609,551,523,498,481,496,536,578,621,653,684,717,747,773,790,808,824,848,884,925,959,965,962,976,976,982,997,1010,1011,1000,1005,1007,1010,1024,1052,1068,1073,1065,1053,1066,1106,1141,1162,1157,1158,1175,1201,1243,1278,1303,1334,1374,1403,1433,1468,1504,1521,1509,1477,1442,1405,1363,1344,1350,1352,1338,1334,1342,1338,1329,1335,1348,1355,1355,1348,1354,1369,1386,1412,1427,1443,1448,1439,1438,1439,1432,1405,1365,1325,1276,1239,1213,1203,1199,1195,1180,1149,1135,1148,1153,1134,1100,1095,1083,1064,1071,1081,1064,1026,986,977,975,974,978,973,959,962,969,962,956,953,953,932,896,869,838,813,792,755,725,690,661,642,619,591,561,540,515,494,479,454,451,448,424,402,386,353,338,333,328,309,308,346,391,430,470,510,559,624,682,721,756,778,770,764,752,740,751,768,756,724,680,629,587,562,520,500,489,461,452,461,494,514,509,510,535,581,624,662,680,705,743,771,779,771,768,770,774,789,805,842,879,926,979,1019,1041,1046,1054,1071,1092,1097,1076,1052,1028,1002,975,953,933,911,883,861,838,818,797,771,752,731,711,691,671,658,652,647,633,617,602,586,563,543,521,487,453,432,407,387,398,425,441,453,481,509,531,559,587,620,662,671,652,630,615,607,604,598,578,551,524,501,482,461,445,426,404,382,370,397,436,468,466,448,431,420,408,390,391,405,419,440,461,490,516,537,550,558,562,568,582,594,604,618,641,665,685,707,714,707,702,691,674,664,665,660,652,646,631,610,593,581,578,579,582,592,602,598,591,576,558,535,513,493,477,469
323,317,314,314,314,314,315,316,313,314,315,316,316,317,321,328,330,332,341,349,351,355,353,358,364,370,367,347,364,387,395,401,408,417,440,454,467,486,494,509,472,430,472,522,564,603,669,687,671,618,587,597,630,653,663,671,653,622,618,645,674,691,674,637,593,535,474,437,461,502,529,519,510,516,511,529,553,571,594,619,636,656,676,697,716,706,677,650,627,651,688,723,753,746,705,643,593,543,489,500,537,563,579,551,504,482,450,439,443,444,465,484,504,526,520,491,469,482,506,514,533,561,599,645,728,791,830,863,859,822,763,707,657,616,575,533,487,451,459,458,445,441,445,444,429,408,423,457,484,504,523,548,567,580,585,580,562,525,495,471,447,423,426,445,458,455,440,451,477,505,517,522,519,502,493,493,483,448,405,355,305,259,243,251,275,306,331,349,354,367,389,412,434,468,496,478,445,412,381,372,373,389,417,443,446,442,487,531,563,586,613,622,609,588,563,549,555,576,605,623,622,617,591,585,578,562,547,530,551,584,563,543,521,501,455,437,454,491,536,586,629,658,671,674,664,666,685,709,705,697,721,747,764,760,761,784,830,872,906,936,948,954,944,933,923,905,923,942,955,1002,1063,1088,1108,1139,1189,1243,1277,1286,1296,1316,1346,1363,1371,1382,1421,1452,1419,1358,1286,1249,1234,1235,1237,1226,1226,1234,1219,1168,1108,1082,1053,1029,997,940,886,847,812,775,741,707,681,654,621,580,544,503,474,440,406,392,392,407,429,454,465,467,465,455,440,416,390,364,350,347,348,347,353,377,407,438,468,496,528,559,585,602,613,623,642,677,722,740,720,691,659,665,663,668,666,665,659,683,725,745,755,745,762,805,851,889,893,870,841,813,781,777,776,765,789,826,877,941,950,928,923,935,920,893,868,838,835,847,846,857,874,898,930,980,1035,1086,1147,1173,1187,1182,1176,1165,1155,1161,1180,1180,1160,1143,1144,1151,1144,1130,1149,1199,1246,1283,1314,1337,1354,1366,1388,1428,1460,1472,1477,1490,1507,1529,1554,1566,1541,1489,1437,1389,1361,1363,1376,1373,1356,1343,1353,1344,1312,1260,1219,1218,1251,1259,1227,1186,1197,1232,1247,1238,1206,1154,1134,1136,1140,1142,1172,1228,1273,1296,1283,1263,1252,1247,1248,1251,1242,1211,1175,1141,1114,1089,1065,1033,1004,976,957,934,906,884,874,859,846,846,883,916,949,984,1035,1099,1149,1193,1220,1212,1218,1211,1208,1217,1207,1202,1193,1184,1177,1154,1113,1074,1064,1076,1106,1125,1124,1135,1158,1159,1171,1202,1220,1231,1248,1277,1298,1326,1356,1401,1449,1482,1527,1568,1607,1652,1701,1703,1677,1646,1620,1587,1557,1544,1526,1486,1417,1391,1370,1384,1432,1380,1345,1311,1276,1283,1315,1298,1279,1254,1231,1200,1161,1127,1099,1063,1022,982,955,937,927,923,889,842,757,734,731,733,736,737,735,728,721,719,734,738,723,733,736,731,727,724,711,691,668,647,620,595,566,534,495,465,432,399,374,358,340,326,315,307,305,300,305,339,372,404,429,499,600,635,663,702,715,706,696,712,741,804,851,893,919,947,971,990,1010,1034,1063,1088,1099,1111,1140,1180,1217,1254,1286,1332,1359,1391,1414,1418,1448,1484,1473,1469,1479,1483,1496,1538,1553,1549,1534,1517,1501,1482,1468,1458,1450,1436,1424,1409,1394,1382,1373,1360,1346,1346,1351,1346,1330,1320,1314,1322,1327,1321,1305,1302,1307,1317,1324,1324,1308,1289,1271,1258,1259,1257,1253,1254,1245,1237,1244,1239,1226,1210,1196,1184,1180,1179,1176,1166,1144,1128,1123,1117,1119,1138,1155,1167,1177,1197,1214,1228,1237,1240,1224,1190,1154,1123,1110,1104,1091,1073,1056,1038,1023,1009,992,975,958,939,921,906,889,875,861,850,835,817,799,777,740,694,653,619,590,567,543,534,522,498,507,580,616,627,620,621,644,656,639,629,648,700,731,752,723,675,644,638,640,609,567,577,617,648,668,690,716,759,803,836,852,827,772,728,725,761,804,831,805,764,719,674,638,616,592,568,541,490,443,398,353,358,407,461,515,560,595,627,662,687,718,756,789,792,767,742,714,687,650,639,669,696,726,747,744,743,746,736,696,651,613,584,571,549,511,490,506,547,589,619,651,687,717,737,759,782,809,835,864,902,940,978,998,1010,1011,1011,1029,1050,1055,1054,1058,1054,1048,1050,1069,1082,1095,1097,1096,1099,1122,1153,1194,1214,1220,1232,1265,1304,1333,1367,1411,1439,1453,1465,1490,1507,1498,1472,1446,1415,1383,1348,1310,1310,1314,1293,1284,1290,1286,1277,1282,1296,1309,1309,1300,1310,1332,1356,1380,1400,1410,1402,1397,1402,1409,1422,1416,1382,1347,1310,1284,1274,1271,1257,1257,1231,1200,1194,1207,1213,1183,1158,1147,1141,1125,1123,1127,1107,1077,1046,1035,1042,1031,1025,1018,998,989,984,979,975,962,933,901,866,836,810,788,774,748,717,693,678,670,648,624,607,590,566,550,527,505,491,465,434,401,365,323,305,299,304,299,321,364,409,444,473,497,543,583,627,674,729,792,817,819,815,819,822,802,748,706,663,620,580,551,552,554,535,508,485,465,472,474,478,504,532,558,587,610,641,683,719,727,730,728,723,721,737,760,800,851,907,951,982,1002,1001,997,1015,1036,1062,1086,1091,1076,1047,1025,998,971,944,918,889,862,844,829,807,787,756,721,693,669,652,636,629,618,605,588,571,560,537,516,496,470,437,415,410,426,454,474,493,512,526,556,591,617,637,658,676,664,640,622,605,598,595,594,578,552,531,503,481,460,444,432,415,387,386,418,452,487,491,473,453,435,419,405,407,424,447,459,476,505,542,566,580,588,585,585,596,610,623,638,659,678,681,687,689,678,683,693,690,689,689,683,671,654,630,612,597,589,583,584,588,590,582,566,563,554,545,537,528,513,496,479
333,329,329,329,327,327,330,331,333,338,344,343,341,337,343,353,357,358,375,394,402,422,418,424,430,431,419,384,406,445,464,476,481,500,516,525,565,578,585,612,555,523,504,540,586,638,687,722,728,679,639,640,666,702,729,726,697,675,686,704,717,694,643,580,533,476,442,451,481,510,534,536,535,547,549,555,576,598,624,657,690,714,737,758,767,755,727,695,689,716,747,749,723,696,663,631,583,535,502,515,551,593,623,633,580,531,486,457,469,471,473,496,525,562,562,517,498,499,532,558,566,593,641,710,772,836,876,877,854,815,763,711,659,611,566,528,491,483,499,497,484,482,483,472,451,424,433,464,483,507,529,547,569,588,591,572,543,514,492,469,445,428,439,466,483,486,480,483,499,520,526,522,508,478,449,438,434,423,391,349,298,255,247,271,306,330,338,356,377,394,416,436,449,474,511,531,506,473,442,419,395,381,397,415,410,413,421,467,515,541,577,610,607,587,569,572,592,614,641,667,676,673,660,615,623,620,611,590,598,634,652,640,633,590,558,506,469,459,491,549,591,590,591,586,583,595,619,641,634,643,662,678,695,703,728,777,808,814,836,865,877,891,886,872,865,858,866,892,931,985,1030,1062,1108,1148,1194,1219,1231,1246,1276,1314,1354,1392,1414,1436,1475,1490,1452,1385,1347,1325,1308,1309,1301,1290,1281,1248,1179,1116,1054,1023,998,969,922,865,822,788,755,723,692,664,635,610,589,560,529,494,456,420,398,400,419,442,462,474,479,476,470,463,455,443,424,395,378,368,362,352,349,353,372,402,433,461,487,504,528,557,585,605,624,658,696,736,740,718,692,705,712,714,718,714,700,708,752,773,786,785,804,837,878,912,914,888,856,827,802,809,812,796,807,843,887,939,960,946,941,942,923,899,877,857,849,862,879,891,904,928,958,1006,1056,1099,1149,1166,1154,1135,1116,1096,1087,1108,1131,1127,1113,1097,1096,1100,1093,1096,1135,1190,1217,1242,1254,1257,1282,1311,1351,1389,1425,1460,1476,1487,1505,1529,1554,1572,1556,1515,1465,1424,1414,1417,1428,1419,1402,1393,1389,1367,1328,1283,1246,1242,1278,1293,1265,1228,1222,1260,1282,1260,1205,1170,1164,1173,1172,1169,1188,1232,1275,1299,1276,1245,1219,1202,1204,1210,1201,1164,1110,1066,1040,1027,1014,987,957,925,904,899,899,897,885,868,851,874,924,966,991,1026,1073,1130,1171,1220,1261,1279,1281,1267,1265,1273,1264,1263,1266,1256,1237,1200,1155,1127,1108,1108,1145,1174,1166,1147,1155,1176,1204,1233,1260,1278,1277,1289,1313,1349,1379,1409,1447,1481,1527,1570,1616,1668,1716,1749,1723,1701,1661,1621,1614,1610,1587,1556,1502,1476,1473,1484,1480,1434,1391,1359,1329,1353,1395,1373,1349,1313,1272,1234,1198,1158,1130,1085,1050,1020,994,976,959,946,935,909,844,803,795,801,807,801,794,780,774,780,788,787,781,782,788,788,783,773,754,730,705,683,650,620,585,546,510,476,447,420,395,376,356,340,329,319,309,303,299,316,338,363,398,425,527,564,629,646,648,644,656,690,730,774,828,855,856,875,902,932,951,985,1017,1035,1049,1081,1112,1145,1183,1226,1273,1322,1376,1432,1465,1485,1514,1537,1532,1533,1543,1542,1546,1558,1557,1542,1523,1501,1481,1462,1448,1435,1425,1413,1398,1386,1376,1364,1353,1345,1343,1354,1352,1333,1316,1311,1317,1331,1342,1333,1314,1314,1320,1316,1298,1288,1278,1266,1264,1275,1279,1271,1262,1255,1247,1244,1236,1213,1193,1179,1168,1157,1145,1145,1142,1138,1128,1129,1140,1125,1107,1120,1140,1152,1163,1184,1198,1221,1238,1238,1211,1174,1135,1108,1081,1071,1064,1055,1051,1042,1023,995,983,965,947,932,914,891,875,866,856,845,834,818,790,737,685,638,613,589,566,552,557,572,575,545,546,612,660,674,660,653,657,680,686,670,661,696,730,759,736,705,697,691,665,633,589,590,631,666,697,723,742,768,807,850,879,859,813,783,778,802,838,849,820,778,734,696,658,626,605,586,564,518,468,415,371,357,394,444,503,551,594,631,664,692,720,757,792,824,819,784,754,715,684,674,693,727,756,789,799,796,784,749,698,658,645,640,627,599,538,516,502,516,546,576,614,658,693,716,746,766,793,822,850,879,916,952,971,983,993,999,1016,1037,1047,1045,1031,1024,1021,1013,1007,1020,1042,1079,1115,1141,1166,1189,1207,1226,1246,1269,1301,1337,1372,1414,1461,1479,1482,1487,1493,1486,1464,1434,1403,1373,1343,1318,1288,1267,1269,1255,1233,1238,1237,1232,1238,1257,1274,1273,1258,1262,1290,1321,1350,1369,1376,1360,1351,1352,1360,1378,1403,1411,1391,1370,1349,1337,1329,1311,1297,1264,1241,1233,1221,1199,1172,1149,1137,1131,1125,1113,1101,1091,1084,1077,1054,1036,1020,987,968,948,927,914,912,911,908,894,871,843,814,789,770,755,740,718,702,687,669,644,622,599,583,562,542,520,499,482,452,416,379,340,312,309,321,323,331,361,408,451,492,518,542,567,596,645,685,734,803,856,883,895,881,841,791,740,697,659,620,601,606,621,616,576,542,514,488,479,483,480,486,499,521,549,590,628,660,681,679,680,681,682,713,752,783,829,872,915,930,938,957,956,966,985,1004,1036,1068,1096,1097,1068,1041,1017,990,954,921,893,862,834,810,798,781,746,708,680,657,640,619,597,586,571,553,543,531,510,491,468,446,435,449,465,488,507,526,552,562,574,595,633,662,685,690,675,650,628,612,602,592,586,580,560,546,531,511,488,465,448,435,413,392,405,441,474,507,511,493,475,452,433,424,427,440,467,490,511,530,562,592,613,618,613,613,620,632,649,671,683,679,671,664,659,654,654,670,686,694,695,681,664,641,621,598,580,565,558,552,554,554,544,532,528,521,510,501,498,494,488,474
