206,213,214,219,232,243,258,275,294,304,312,332,349,355,358,359,347,322,300,295,303,315,313,312,315,328,349,368,374,381,394,410,432,442,454,463,464,458,451,435,420,404,380,360,364,391,414,435,450,447,432,417,413,413,427,458,496,527,544,552,553,523,481,443,412,401,398,397,398,402,396,369,331,301,278,260,236,225,213,194,168,148,146,150,145,139,131,123,130,133,126,116,111,100,90,91,110,134,141,143,141,138,148,152,148,156,164,177,190,200,212,223,233,230,218,205,193,177,152,129,108,115,136,147,143,118,97,92,101,124,147,164,183,200,213,226,237,237,216,193,173,160,153,150,158,172,192,203,208,219,224,230,253,283,296,289,276,268,265,247,231,241,265,289,321,339,361,374,392,418,438,446,451,446,434,432,418,397,374,364,362,361,370,391,403,404,400,401,418,422,409,382,357,341,327,340,363,376,353,310,272,282,314,338,334,317,323,351,359,354,354,345,322,293,291,307,330,348,364,367,370,387,416,439,436,405,410,421,437,449,454,440,422,403,384,358,337,328,321,302,285,263,249,239,221,207,194,188,175,155,135,137,144,145,149,153,147,139,129,118,113,112,112,114,107,96,88,82,85,84,82,83,87,93,101,104,115,133,155,173,178,177,188,198,199,193,184,176,183,198,211,225,239,250,266,289,325,354,388,445,514,546,553,553,554,545,540,559,584,605,620,629,647,652,650,646,642,642,642,643,643,642,641,641,649,657,659,653,648,653,654,660,680,706,735,756,750,727,708,692,690,687,689,706,736,751,744,725,705,675,644,612,587,570,558,535,513,490,469,453,429,413,398,377,348,323,317,331,355,359,355,352,360,361,342,317,286,267,269,281,316,340,352,363,376,381,380,371,352,327,300,279,266,245,225,207,196,190,191,189,185,173,162,154,147,146,158,179,201,219,227,223,219,210,204,194,187,181,171,162,152,139,131,141,144,132,125,121,124,123,126,130,130,128,130,131,127,124,123,127,128,124,124,125,126,129,131,131,130,129,129,129,128,125,122,119,118,118,121,120,120,120,119,119,121,122,122,121,121,121,125,131,135,136,136,136,134,132,132,133,134,134,138,138,132,132,133,131,133,134,135,135,136,138,140,140,142,145,145,148,151,153,160,162,162,162,160,155,155,170,193,215,225,225,220,212,199,190,176,168,165,165,167,167,169,172,173,173,173,177,183,184,180,184,188,196,202,202,224,228,226,230,224,224,219,221,234,256,272,285,317,350,374,396,410,425,426,421,415,412,406,426,454,476,489,489,479,464,445,426,420,420,418,412,411,415,422,440,454,466,481,493,482,448,411,368,319,278,256,268,293,326,364,405,438,475,504,526,543,570,583,593,582,556,523,482,449,427,434,439,433,407,398,389,379,351,322,298,285,310,348,389,420,449,497,533,572,597,634,649,618,580,548,524,513,506,518,545,556,535,510,483,456,430,408,414,438,465,492,503,518,539,556,555,533,504,482,478,499,509,489,463,450,462,487,514,525,514,499,477,456,441,423,392,358,323,290,278,253,234,221,241,274,301,317,337,351,373,409,445,465,487,496,490,460,412,374,348,338,344,351,358,363,352,319,288,250,233,211,179,149,129,128,119,117,145,185,227,262,287,312,340,367,398,431,463,488,506,522,539,538,543,549,565,587,626,657,684,712,716,702,697,703,714,728,719,691,669,658,644,623,624,627,626,647,677,706,727,742,758,777,798,813,809,789,767,754,728,689,660,642,626,616,616,611,593,569,539,502,464,435,422,422,423,404,383,363,334,300,270,272,282,278,262,245,225,209,196,180,159,148,149,137,131,132,137,141,148,162,183,176,159,156,174,195,212,225,232,233,224,209,197,192,186,171,158,154,170,187,206,228,247,258,266,266,255,239,220,201,207,236,269,297,312,297,269,250,236,227,217,204,192,177,156,165,185,200,203,199,195,182,157,137,136,150,163,180,196,216,227,245,272,288,300,304,303,305,308,302,286,265,245,236,222,202,201,214,214,202,185,162,149,148,147,138,129,117,107,102,113,141,150,151,147,148,144,139,146,158,174,186,201,217,234,254,274,294,331,351,344,336,337,344,353,370,385,393,402,419,434,434,418,401,409,423,415,403,407,420,429,422,396,367,364,391,410,416,401,377,374,377,373,376,381,379,367,361,347,332,315,295,266,240,226,238,251,244,227,212,208,208,206,210,218,225,236,250,260,272,276,271,265,271,265,265,292,324,341,345,342,347,351,362,367,381,400,409,428,436,452,471,497,511,541,575,609,640,682,722,756,785,806,834,863,889,912,937,959,977,1000,1026,1045,1051,1035,985,936,896,857,817,784,745,707,680,657,637,619,607,598,591,593,588,573,557,533,514,510,492,472,450,425,404,370,338,322,304,294,287,281,280,288,309,337,361,382,379,369,357,337,334,336,341,334,322,319,310,289,256,237,234,228,220,217,224,240,258,283,296,300,290,295,303,303,291,268,264,261,247,237,238,228,207,173,142,139,176,202,213,193,173,150,115,70,60,62,65,72
211,220,231,239,250,258,270,288,303,314,328,350,370,383,385,372,349,325,318,321,323,339,349,357,353,339,334,341,352,358,370,385,402,424,449,472,486,489,484,466,451,430,400,393,385,404,430,454,472,482,479,460,446,445,451,471,496,519,539,562,580,566,531,502,475,460,444,434,427,422,399,367,337,308,274,248,216,193,187,172,169,175,174,177,186,178,168,159,151,138,124,117,113,102,91,92,108,124,126,130,130,124,133,136,128,138,146,163,181,199,215,228,234,231,225,221,208,191,171,146,113,106,121,129,119,99,86,97,117,138,160,174,191,211,230,248,258,251,231,218,205,193,191,185,174,165,172,179,196,205,208,218,245,274,295,299,296,294,291,275,262,257,252,250,260,281,303,317,340,373,396,428,456,476,475,464,444,422,409,397,392,391,400,421,435,440,446,443,439,439,423,401,388,372,363,367,385,397,376,340,316,306,329,368,374,360,349,369,377,380,381,368,341,308,308,328,344,357,379,400,417,429,446,462,455,433,430,443,458,457,446,432,414,395,374,344,325,298,278,268,256,235,225,216,205,195,182,170,156,138,127,140,149,152,156,159,149,142,133,130,129,131,132,131,125,108,94,83,81,81,83,86,101,119,130,141,149,158,168,185,198,200,207,216,218,202,196,193,191,204,222,239,248,258,274,292,331,364,389,433,489,553,563,566,564,556,568,592,613,631,639,632,635,639,638,635,638,643,647,652,658,660,661,667,676,673,664,653,645,641,641,654,671,693,714,731,740,737,716,691,679,675,686,710,727,726,712,686,664,645,633,623,601,580,558,538,511,484,465,447,428,406,380,357,337,307,292,304,321,323,315,322,338,336,330,311,292,270,253,261,284,300,314,335,344,350,358,361,349,330,310,289,269,248,231,221,216,214,210,199,189,179,171,157,147,137,140,155,175,196,213,218,217,211,204,196,190,187,180,175,163,148,131,120,116,118,116,114,114,116,120,123,124,126,127,125,122,124,126,125,126,123,119,118,121,123,124,121,122,124,125,125,126,119,113,117,117,117,119,119,119,117,120,122,122,122,121,118,118,124,132,142,148,141,137,133,133,134,133,131,134,135,139,143,144,138,137,137,137,139,138,139,140,141,141,143,145,146,148,149,155,160,166,169,172,171,170,166,159,159,176,199,198,189,187,181,172,168,164,167,165,166,170,175,177,179,181,180,178,179,179,185,187,192,200,202,195,192,206,209,210,213,211,213,214,224,243,257,264,277,297,325,346,366,382,396,400,390,379,370,391,421,442,452,459,455,455,446,434,429,433,444,447,436,416,399,406,429,439,447,454,459,452,430,402,366,326,292,260,255,270,313,353,395,446,476,491,510,528,536,543,545,543,540,527,503,454,413,389,382,379,368,350,335,334,323,296,270,287,326,369,411,443,473,506,527,548,574,603,614,588,557,520,486,466,460,481,516,531,509,476,454,437,409,382,382,411,440,461,470,491,516,550,564,562,537,519,518,533,536,516,498,487,497,508,529,538,518,501,482,461,447,442,413,387,356,336,320,296,265,230,222,241,271,277,292,313,349,391,418,424,431,446,461,464,431,394,354,305,278,287,295,313,321,303,263,218,188,163,134,108,114,113,114,119,143,165,191,236,266,286,315,345,368,399,434,476,503,531,561,575,586,590,594,611,639,670,701,730,736,727,725,728,736,742,735,726,710,695,682,662,653,656,657,667,694,725,744,762,775,786,793,784,760,733,716,715,706,678,641,608,571,558,552,551,549,542,527,493,459,426,395,377,381,371,355,333,309,287,258,240,242,236,223,216,200,183,169,161,164,170,170,152,133,130,134,134,135,142,153,152,152,170,188,204,217,218,219,224,228,218,209,199,192,185,160,155,179,200,220,242,258,271,268,247,222,193,176,185,209,234,257,275,281,276,258,229,212,202,198,188,169,152,141,156,175,189,190,177,163,159,142,128,146,167,179,189,203,216,229,255,276,288,301,308,305,297,289,273,261,249,230,209,203,186,172,180,185,178,168,157,148,142,137,122,120,113,101,99,121,141,157,163,165,167,158,153,162,172,185,196,205,217,232,249,274,292,311,334,340,337,334,338,347,354,371,391,405,420,428,424,406,393,406,417,402,386,392,412,415,409,389,358,345,360,383,396,386,366,359,357,354,359,363,356,351,354,346,328,311,293,277,257,234,214,207,204,201,202,202,215,221,235,252,263,279,298,309,316,310,305,310,317,306,288,296,329,359,361,353,356,367,386,401,424,447,472,480,481,484,495,508,529,557,579,615,657,703,749,785,819,844,874,903,930,959,974,981,996,1020,1037,1035,1005,966,932,899,869,833,798,769,735,703,682,665,648,641,635,631,628,627,618,607,601,590,584,572,539,509,485,448,435,410,381,361,347,335,321,306,283,268,266,285,310,325,328,321,309,308,315,312,303,289,275,276,266,243,229,225,227,225,227,234,242,263,276,292,313,319,310,318,326,327,304,287,289,279,266,261,252,231,206,180,162,163,195,210,216,199,187,161,131,85,61,60,64,68
200,214,232,246,251,260,270,284,299,310,321,341,360,367,368,370,365,356,347,346,346,353,366,383,385,368,358,358,369,370,373,395,414,432,459,490,507,515,515,495,470,438,426,434,427,423,444,466,491,518,521,507,482,478,485,508,535,555,571,589,607,599,571,556,540,524,501,469,438,403,374,342,319,299,270,244,228,210,208,204,209,215,202,201,208,202,189,176,162,141,123,115,109,95,87,91,103,115,116,120,122,121,129,121,116,129,148,173,198,216,230,237,233,216,206,200,191,184,175,152,133,108,92,90,87,83,83,91,105,128,150,165,186,217,240,261,271,268,259,250,238,230,225,228,213,190,181,180,178,184,206,226,256,278,299,315,321,320,312,306,302,298,285,274,277,279,292,303,315,337,365,389,422,460,488,493,481,463,438,427,425,423,440,466,479,479,479,474,468,459,443,427,412,397,387,385,403,404,384,366,356,340,361,397,405,394,374,379,397,409,406,381,346,328,329,335,357,382,402,419,439,452,467,485,480,461,457,456,451,437,422,410,392,372,351,338,327,308,291,275,251,233,215,196,180,170,159,151,140,131,137,145,154,162,164,163,162,159,158,157,152,149,143,137,126,108,95,82,82,82,84,92,124,156,178,194,191,182,191,206,220,234,239,242,234,218,211,205,206,218,232,237,244,264,280,307,354,389,414,456,495,554,571,578,582,576,588,606,623,634,637,638,639,645,646,647,649,654,658,668,676,678,685,695,694,676,648,646,642,639,637,641,651,668,683,695,709,720,718,703,693,690,702,724,730,712,685,655,633,620,615,612,597,574,565,547,515,490,461,443,417,390,370,356,338,309,277,272,287,286,288,299,304,311,320,325,307,275,247,240,254,274,293,317,322,329,334,343,342,326,311,296,282,265,254,243,230,221,216,206,194,186,174,161,152,141,133,133,143,162,192,208,209,210,208,203,193,188,185,179,173,162,138,118,116,116,112,111,113,115,118,121,121,121,122,120,122,123,122,122,121,121,119,118,121,118,118,121,122,122,121,119,118,118,120,119,118,118,115,116,119,118,120,122,122,120,122,123,123,130,141,149,149,139,135,134,135,137,138,134,135,138,139,142,147,146,145,142,142,143,143,143,142,143,144,146,147,148,153,159,164,171,176,183,183,184,180,173,166,160,159,165,162,163,164,163,166,166,166,169,171,174,175,178,182,184,187,188,187,186,189,192,193,197,211,219,208,193,194,195,198,199,201,207,214,225,232,240,258,269,280,297,310,328,344,358,367,360,344,347,377,397,405,411,409,418,433,439,440,446,458,468,469,449,420,380,369,376,387,401,406,409,411,396,373,345,304,269,248,254,276,317,359,402,446,470,471,472,473,481,486,482,478,482,491,501,487,441,405,376,361,341,324,308,300,288,267,262,300,335,371,395,426,462,483,494,520,556,579,581,556,530,499,463,434,429,457,498,520,502,455,423,393,371,360,364,388,410,426,445,471,496,525,552,575,576,566,562,563,562,541,525,523,536,546,542,513,488,457,434,414,403,402,407,401,383,366,350,323,290,250,215,217,240,256,281,305,339,366,373,369,372,390,420,441,421,383,354,308,257,229,240,264,282,258,210,191,163,136,112,115,135,149,151,157,175,191,210,230,252,275,300,328,352,384,418,455,493,527,557,592,617,628,633,645,662,692,722,745,750,745,747,754,763,773,770,767,751,729,710,693,674,673,679,689,708,735,754,773,784,790,780,747,707,680,665,669,667,658,640,605,559,521,501,491,492,492,489,473,447,414,383,354,343,336,319,305,281,253,231,215,206,200,194,188,182,175,175,182,183,179,170,162,148,130,127,128,129,129,132,139,153,166,184,197,197,187,195,217,238,239,235,223,209,192,162,149,179,209,228,247,256,251,239,218,180,158,162,186,212,232,251,264,264,253,240,220,200,178,169,162,149,132,136,154,169,179,177,168,157,150,128,118,134,151,165,182,200,215,228,254,277,292,301,307,305,288,264,233,226,222,216,200,180,173,156,152,154,149,153,151,140,133,126,111,107,100,98,102,126,156,173,176,181,181,170,168,183,198,195,202,210,217,231,245,264,284,314,334,338,334,329,331,331,329,343,372,396,403,405,404,387,384,401,410,399,380,374,389,398,396,373,340,318,331,359,376,374,354,344,345,349,348,351,345,333,330,321,305,283,264,238,217,203,194,194,195,202,206,219,242,260,283,297,290,317,343,358,361,355,351,366,362,348,317,292,314,330,335,346,364,384,414,451,482,504,516,529,535,531,542,546,562,589,611,636,675,724,774,815,859,889,914,943,974,998,1011,1015,1021,1020,1004,981,946,916,889,866,839,810,781,755,724,698,685,677,671,666,664,662,660,657,649,642,636,634,628,622,604,568,534,502,479,471,445,415,394,377,365,348,326,306,281,268,266,276,278,272,272,280,293,289,276,260,241,234,228,227,230,237,245,252,259,273,271,283,310,328,337,338,329,345,356,343,321,314,313,303,295,284,260,232,207,181,173,199,232,242,233,212,193,174,140,100,66,61,63,66
208,232,248,257,264,271,286,293,291,293,299,309,329,346,367,382,393,388,380,381,378,376,385,404,414,410,406,405,413,404,399,423,451,468,481,499,520,540,540,514,483,459,459,466,468,465,466,479,505,534,556,554,528,522,528,537,567,594,611,624,637,636,622,605,585,556,512,449,412,374,335,311,291,273,257,254,254,245,244,242,239,237,233,227,223,209,199,185,168,147,125,112,101,90,87,91,97,105,112,113,112,111,112,103,112,127,146,168,191,212,225,225,223,204,186,176,170,169,164,143,122,102,83,94,103,95,96,101,96,107,129,159,186,217,242,258,272,279,282,276,269,263,255,252,244,227,214,203,190,184,198,222,252,275,293,311,322,324,330,336,334,330,321,312,316,316,327,331,333,346,366,393,417,448,477,509,513,493,478,471,467,461,470,493,505,496,485,488,496,488,475,457,444,429,414,406,410,416,397,385,383,365,388,413,416,414,393,382,403,416,406,375,352,365,370,360,360,379,403,428,447,468,490,505,501,485,464,445,421,395,378,370,352,334,315,321,328,329,326,312,289,266,247,216,198,179,166,152,147,146,151,162,174,182,183,185,182,176,167,154,137,128,117,110,101,93,85,79,79,80,83,106,145,182,211,223,221,222,225,236,255,270,278,279,261,241,236,236,236,237,234,235,243,258,279,305,358,402,434,471,513,567,585,592,588,591,605,616,633,645,655,662,662,667,667,664,666,669,673,678,677,682,687,698,698,678,660,644,637,634,631,632,640,651,658,663,669,680,698,718,733,735,729,725,717,697,661,631,607,597,598,604,599,584,569,545,513,489,463,441,418,390,366,342,319,298,275,252,255,261,256,260,268,282,302,317,306,278,249,222,233,259,274,280,294,316,316,321,326,319,309,293,285,272,262,252,243,235,226,212,201,193,184,170,160,154,144,136,134,145,172,193,204,211,212,207,198,193,192,185,178,162,132,113,113,113,111,109,112,114,119,121,121,119,119,116,114,117,119,118,116,119,120,120,120,119,117,120,119,116,116,116,118,120,119,115,115,115,113,114,116,118,118,120,119,118,122,121,129,138,148,150,146,139,135,134,136,140,140,135,135,137,137,139,148,153,153,148,152,152,150,146,145,148,149,151,152,155,160,170,175,181,189,194,194,193,184,176,167,162,158,158,161,167,171,172,172,173,176,179,182,181,180,181,185,191,194,197,196,196,196,200,199,197,200,205,202,193,192,194,195,197,199,200,204,211,221,241,267,290,304,316,325,329,335,340,342,335,320,326,343,355,364,369,377,391,411,430,444,454,462,467,446,418,389,355,334,337,344,357,372,380,379,371,348,314,273,239,244,276,308,333,374,414,437,440,427,419,421,421,429,433,435,438,450,473,488,474,447,418,393,370,356,336,313,278,254,247,277,316,342,370,397,422,444,472,505,543,564,550,519,487,461,435,410,403,433,477,508,496,456,416,384,352,331,341,363,374,392,415,431,457,488,524,555,581,585,571,562,550,539,534,540,555,563,543,502,465,425,397,379,365,363,366,367,359,345,336,310,293,262,232,211,203,229,256,275,303,330,317,302,320,357,387,408,387,342,322,294,246,214,217,241,247,214,174,157,133,118,112,119,140,171,188,202,220,240,263,280,301,323,336,358,381,412,444,476,506,533,561,593,622,645,660,672,680,694,712,733,746,748,749,764,783,795,802,803,784,762,743,719,701,697,698,699,718,738,757,777,788,783,760,713,676,645,622,617,615,607,607,594,563,533,497,464,447,434,437,439,425,395,368,345,316,297,272,253,240,235,234,226,217,207,202,202,203,196,195,196,189,183,178,170,164,146,132,125,124,126,126,129,137,148,169,177,173,183,193,212,230,235,232,230,212,193,160,148,178,202,219,224,217,206,197,176,149,144,168,192,213,234,252,261,256,242,220,203,190,173,150,145,137,126,133,153,165,171,171,163,155,145,126,111,124,146,163,178,193,208,224,251,273,285,296,298,290,273,252,222,202,197,197,188,164,160,158,146,135,132,133,127,109,99,94,95,96,99,103,116,128,152,176,183,193,186,186,198,206,220,220,231,244,255,269,282,297,310,326,335,333,333,329,327,327,318,321,336,352,358,364,362,355,364,377,390,386,374,361,375,382,366,345,315,292,307,335,353,353,339,337,345,340,334,333,322,309,295,275,251,230,210,193,193,191,199,202,217,232,248,263,288,322,343,348,332,339,364,390,402,405,412,423,414,391,359,329,310,320,340,354,371,402,453,500,538,553,563,577,582,582,595,597,606,624,647,666,712,749,797,854,903,933,959,990,1021,1035,1035,1017,995,975,943,917,889,866,844,826,803,779,758,738,718,689,675,668,673,679,686,692,692,683,665,650,645,645,651,653,646,622,595,562,535,514,489,468,450,434,419,406,377,348,327,303,275,259,247,245,251,255,250,242,242,238,232,237,242,247,257,261,269,276,289,301,308,315,332,352,360,364,356,362,379,372,352,339,330,318,309,283,244,215,195,184,199,233,253,252,228,205,190,171,134,108,74,64,60,63
210,233,253,270,279,292,296,287,279,282,291,299,318,347,369,380,390,400,414,424,421,416,414,431,451,457,452,448,447,432,428,445,468,482,498,515,531,548,552,529,506,486,489,503,506,503,495,501,532,564,591,597,585,579,572,575,589,616,638,657,671,676,665,634,598,550,501,445,407,379,360,338,319,300,289,288,285,280,274,263,250,239,229,219,206,195,184,167,149,133,117,105,98,87,86,88,93,102,109,103,86,81,82,90,111,125,143,168,191,212,211,199,189,182,170,160,154,144,127,107,89,85,86,109,125,132,141,136,106,102,130,161,187,215,232,250,264,277,284,283,279,282,280,273,266,252,228,212,208,196,192,202,222,243,262,272,281,293,315,336,343,352,350,348,349,346,351,361,369,373,380,397,421,444,475,508,529,521,508,500,492,475,464,464,464,459,462,485,508,509,504,485,464,453,447,432,431,438,429,410,389,385,402,417,421,419,403,392,405,407,398,391,385,389,398,392,382,388,414,438,460,483,508,516,501,471,436,412,388,361,340,329,319,302,282,285,301,302,303,305,302,285,256,235,210,187,171,167,163,164,171,181,193,199,196,179,160,145,134,122,107,97,90,86,85,83,83,82,81,80,89,113,139,160,187,213,237,258,272,273,289,298,308,312,293,275,268,263,267,268,265,256,257,272,286,311,360,401,440,480,516,558,586,591,595,610,627,642,659,675,686,689,688,686,683,680,679,679,672,664,665,677,699,725,735,721,693,671,659,650,647,650,656,669,671,665,665,672,688,716,738,749,734,703,676,657,638,615,604,605,610,610,597,582,567,540,514,491,471,450,434,411,381,349,319,286,259,243,237,235,229,231,244,264,281,287,287,272,247,218,213,232,245,253,267,282,293,305,316,314,306,302,293,280,275,267,253,237,227,218,214,209,193,180,173,171,157,143,134,129,143,167,195,201,204,201,196,192,191,184,175,149,121,112,110,109,109,110,112,115,115,114,113,113,113,114,115,118,119,113,113,111,114,115,116,116,116,120,118,115,113,112,114,117,113,113,114,113,112,114,114,115,117,116,115,119,125,131,138,148,154,153,148,142,137,137,139,145,146,141,140,138,137,141,151,162,163,159,159,159,157,152,150,151,155,156,158,162,167,176,184,194,204,208,196,186,180,174,169,166,167,164,170,178,181,183,183,187,194,194,192,188,185,185,189,199,206,206,209,206,206,214,217,211,205,200,196,195,196,196,194,195,196,197,199,200,213,228,247,271,294,307,312,306,298,303,306,302,295,292,307,316,326,334,362,393,415,426,428,433,444,444,431,406,375,343,316,313,320,324,335,344,341,338,325,299,263,236,238,259,281,303,348,385,400,388,376,375,379,384,397,401,404,411,427,447,465,469,451,422,394,377,359,332,310,283,256,242,253,285,312,326,349,376,412,455,494,532,554,535,503,462,425,400,373,371,411,453,486,480,444,402,373,338,312,318,327,339,365,388,410,440,475,509,539,563,558,539,523,511,501,493,504,522,536,527,499,459,422,396,367,340,325,322,329,330,315,294,272,269,259,240,213,183,189,211,241,272,291,268,252,273,324,366,390,390,340,304,272,236,198,195,213,214,185,158,143,127,115,129,146,151,158,170,195,229,263,297,322,344,361,377,400,421,445,474,497,524,544,564,585,616,639,649,654,653,652,663,696,717,727,739,763,786,799,817,823,807,782,756,736,727,723,723,716,717,743,756,766,769,755,729,687,659,628,595,565,556,547,545,541,529,519,502,474,443,412,396,398,387,365,343,321,293,276,269,265,262,263,266,252,230,229,231,225,226,220,215,204,193,184,172,164,158,152,139,127,125,125,126,127,128,132,145,151,158,180,200,216,225,220,205,201,192,171,149,143,171,186,173,151,140,133,130,122,118,132,170,206,228,244,260,264,254,236,209,187,172,159,141,128,119,124,147,167,170,175,175,171,157,134,114,111,127,141,158,175,188,206,222,238,254,267,267,264,262,258,243,218,195,180,172,165,154,150,155,144,126,122,126,116,97,92,94,96,96,100,117,137,147,157,182,200,214,210,211,220,232,237,245,254,271,289,306,320,332,345,356,359,354,345,336,327,324,315,311,318,316,310,312,313,316,332,349,356,356,346,333,342,349,339,317,286,270,290,317,332,325,314,324,333,318,307,295,281,262,241,220,207,197,191,188,193,203,228,254,276,293,299,299,320,357,389,392,378,367,383,415,447,463,473,475,459,431,399,370,375,388,402,414,429,435,453,497,546,579,592,596,615,629,642,648,656,671,688,707,744,783,838,900,943,978,1007,1037,1052,1043,1008,965,928,898,871,855,843,823,810,796,773,752,742,740,726,700,669,646,654,673,695,710,710,695,666,636,624,625,634,642,633,619,604,588,563,544,522,506,491,479,464,446,424,394,370,337,311,280,266,256,247,243,242,244,250,255,257,269,275,284,292,299,311,311,309,321,334,346,367,380,387,385,378,380,398,386,358,334,319,306,290,269,241,215,199,209,237,261,272,248,221,192,167,148,138,123,97,76,65,61
207,228,250,256,256,263,257,250,271,293,310,322,333,353,363,361,377,398,423,443,456,448,437,456,479,490,488,484,474,461,459,468,478,497,521,535,550,560,559,554,541,526,531,548,546,535,527,534,561,595,622,643,643,642,635,625,620,631,648,666,673,668,658,624,592,545,501,462,433,417,395,375,355,340,323,308,291,276,260,245,229,214,214,196,167,148,140,129,117,112,106,98,92,86,86,84,90,98,100,91,82,84,81,80,103,126,150,173,196,208,197,175,154,143,138,136,135,119,96,81,88,97,109,129,145,162,172,166,128,103,121,151,178,198,213,229,238,252,263,268,275,278,279,272,251,238,238,238,235,221,206,211,214,221,227,227,238,259,277,297,321,341,358,374,381,380,383,397,408,411,417,426,438,458,478,504,528,528,518,503,482,453,431,423,422,425,441,477,514,530,523,508,498,487,475,457,452,451,441,423,407,411,411,421,416,410,401,399,413,418,425,427,415,414,426,423,415,419,440,466,483,495,501,495,468,438,408,388,373,348,323,303,291,279,266,265,264,258,253,267,284,287,263,244,215,200,188,181,178,184,194,195,194,183,162,142,125,113,103,94,93,90,86,85,81,81,81,81,84,83,97,119,134,152,176,210,241,276,297,298,304,316,327,330,320,305,290,280,284,298,297,276,271,280,294,316,363,399,439,471,512,549,578,593,608,627,649,673,694,712,722,710,704,701,695,690,681,675,670,670,674,692,716,743,767,755,727,698,673,654,649,659,675,695,689,672,661,659,671,695,710,709,691,663,640,625,619,608,599,590,584,579,576,568,553,540,521,505,479,449,428,408,381,355,334,310,284,254,232,219,212,208,221,236,247,261,271,257,241,220,204,212,226,242,257,279,295,314,324,322,319,314,306,295,287,278,267,252,242,232,227,225,215,199,186,177,164,150,137,127,131,151,179,195,197,194,193,192,186,183,160,128,113,111,111,109,111,109,110,111,113,114,112,111,115,116,116,118,117,115,113,110,112,112,113,115,114,115,118,114,112,112,111,112,111,113,113,112,112,113,113,115,117,118,117,122,129,139,152,160,161,156,152,146,137,140,143,147,148,145,145,142,139,141,154,167,171,173,172,168,164,156,156,158,161,167,168,169,174,185,198,209,218,215,195,183,180,170,174,183,180,170,168,177,179,182,188,195,202,204,202,199,196,192,196,202,205,214,221,219,212,219,228,227,218,206,200,201,201,202,203,201,198,199,200,201,203,212,226,233,246,259,267,267,263,264,270,269,266,271,288,308,337,354,374,396,408,404,403,406,407,412,410,397,373,340,304,284,288,294,303,310,309,302,291,285,268,248,232,230,249,282,317,354,355,337,330,339,351,367,384,384,386,404,426,449,474,470,437,401,378,351,330,306,279,246,229,238,262,287,307,329,357,388,418,453,489,519,536,514,480,452,405,385,349,347,391,433,468,456,407,373,351,327,299,283,292,326,360,387,412,436,456,483,504,529,528,504,479,469,456,449,464,483,503,521,506,475,442,413,376,343,311,281,281,283,267,252,230,226,234,219,204,186,173,184,210,240,239,224,219,251,295,347,380,390,358,323,285,241,198,167,166,173,154,137,127,118,124,156,186,200,197,186,185,203,234,268,301,326,356,372,396,422,451,482,491,502,511,537,568,596,608,613,607,603,616,639,657,671,701,729,753,777,795,810,819,814,793,769,759,754,748,745,734,726,739,754,756,752,741,713,684,666,643,614,586,557,525,502,493,476,465,464,452,439,411,374,349,346,338,318,304,298,294,295,301,302,299,282,265,253,250,247,243,239,231,213,188,171,158,151,153,152,152,143,133,129,128,127,127,127,128,126,138,159,186,213,227,224,202,184,167,166,158,144,140,160,150,122,106,105,104,102,102,102,111,145,179,201,219,229,232,232,223,204,191,177,169,160,141,121,129,147,159,167,166,159,158,146,120,106,116,138,146,160,174,187,202,211,211,216,227,232,229,232,229,216,198,182,167,150,147,146,140,141,140,127,119,111,106,96,94,94,95,96,109,133,149,151,159,178,203,223,237,246,249,261,266,265,268,286,305,317,334,352,371,380,384,380,365,349,341,333,329,313,308,303,292,285,283,280,287,298,313,319,314,302,308,307,293,274,255,261,298,322,320,306,283,286,294,288,275,259,243,233,218,202,198,195,201,209,223,242,272,309,333,343,344,339,346,374,409,431,428,411,416,459,489,516,525,517,492,461,429,422,434,437,457,485,496,482,478,491,523,558,585,612,623,641,667,685,692,710,732,754,779,817,865,925,991,1018,1046,1042,1019,987,952,908,871,849,832,814,802,787,778,766,754,736,722,725,723,698,659,629,642,668,696,717,721,704,675,644,612,594,587,577,563,543,536,531,533,528,523,521,511,502,485,466,445,421,400,370,333,307,294,287,276,264,261,262,272,285,291,301,307,314,326,332,350,356,354,360,374,388,401,405,392,374,365,367,378,369,345,322,302,291,277,258,236,216,211,231,259,280,280,259,234,215,197,186,166,141,123,115,100,87
200,214,225,229,230,230,228,243,280,306,325,344,354,353,344,346,368,397,428,452,469,475,477,488,499,502,500,499,498,486,480,484,497,520,541,558,571,577,582,589,581,575,579,591,590,573,569,572,592,629,660,691,694,685,669,657,648,652,653,644,626,609,600,579,537,501,464,437,425,417,407,393,370,354,335,311,282,258,230,209,192,179,168,152,138,134,141,144,138,129,114,107,101,93,89,86,87,93,94,89,84,87,86,85,105,126,156,179,197,196,173,146,118,104,105,111,117,103,84,91,111,126,137,146,160,178,195,191,156,124,120,143,165,181,187,197,216,231,246,252,243,244,261,269,258,250,246,249,247,240,229,234,233,235,233,232,238,244,256,273,293,314,336,357,381,400,414,426,433,438,451,467,477,492,505,516,523,513,490,476,458,432,406,399,407,424,452,489,533,557,557,547,536,520,504,489,481,465,456,447,444,440,439,448,437,425,422,422,435,440,456,455,439,443,457,456,455,458,465,474,481,481,465,444,429,411,391,378,356,340,324,301,275,248,235,235,232,222,222,242,260,265,251,232,208,188,181,173,176,193,195,187,175,152,134,118,105,97,93,99,108,106,100,90,83,80,78,79,78,88,103,124,147,172,201,233,259,283,300,301,304,319,323,316,307,298,286,275,282,298,296,286,286,299,317,333,365,396,444,481,523,553,581,600,615,637,663,688,706,712,709,700,694,690,684,680,672,663,660,656,662,679,704,723,737,737,731,709,681,655,644,655,675,681,670,661,658,655,665,676,681,667,657,638,614,604,592,569,554,550,548,551,547,541,537,527,514,497,474,441,421,401,380,357,330,304,290,271,252,242,222,202,193,200,220,242,250,241,221,202,196,203,213,235,256,283,308,327,326,322,321,317,309,302,285,279,273,266,255,245,237,225,208,194,184,177,159,152,142,124,118,129,153,177,191,187,187,185,172,152,128,110,109,108,109,109,108,107,106,110,114,114,112,110,115,115,116,114,113,113,113,112,112,110,112,111,112,112,113,112,110,112,111,111,114,114,113,112,111,112,113,113,115,119,121,132,143,154,165,166,161,152,147,142,141,140,143,149,150,149,147,143,140,141,152,166,174,180,178,174,165,159,161,165,171,176,178,179,182,192,208,227,230,217,194,180,176,184,204,211,197,177,171,171,173,171,177,188,194,201,212,211,205,201,205,213,220,222,229,233,230,229,229,226,217,206,206,206,204,205,207,209,202,200,201,208,210,210,208,212,218,224,227,229,230,232,234,242,257,282,308,329,363,382,388,388,379,371,367,376,379,377,371,366,356,331,291,266,266,271,281,279,269,263,255,248,251,249,231,212,214,254,288,306,307,293,306,328,344,357,357,360,385,407,421,445,466,456,421,386,355,325,304,267,231,213,219,252,281,305,331,364,395,421,441,468,503,530,530,503,472,437,394,354,322,329,377,417,447,439,386,351,326,310,289,267,286,314,347,372,384,390,409,437,468,497,500,477,452,430,420,415,430,453,477,499,506,486,448,407,369,340,314,288,270,248,225,217,212,206,204,204,205,193,178,167,173,180,176,166,183,222,267,314,355,373,356,325,289,244,201,157,136,130,118,114,113,117,142,178,216,242,238,225,222,215,219,225,248,274,302,332,370,406,432,441,443,454,477,510,540,558,565,569,566,572,600,616,622,644,673,696,727,759,786,807,824,830,815,801,789,780,770,759,736,738,751,764,767,762,747,730,713,693,663,643,618,589,554,529,503,483,450,418,394,387,376,354,335,329,324,320,327,327,332,336,337,328,313,293,280,264,247,238,233,231,215,184,171,171,174,182,181,174,170,156,135,130,128,126,124,127,130,125,128,148,177,202,215,211,188,172,155,147,138,133,139,151,131,107,103,104,105,105,104,103,102,108,136,159,176,183,187,184,183,177,172,163,160,156,137,117,116,128,134,136,135,128,131,119,105,100,116,130,138,146,156,171,182,186,186,200,210,212,198,193,200,184,167,158,151,143,143,138,132,128,130,122,112,103,99,91,95,96,95,101,117,134,139,150,166,189,212,233,256,274,286,297,301,303,298,310,315,325,347,379,401,412,417,404,388,373,370,359,349,318,282,262,259,253,252,246,251,263,273,280,274,258,256,248,229,219,225,258,292,304,299,274,253,254,263,271,271,263,253,247,230,215,205,208,229,249,269,290,314,341,373,395,402,397,387,394,430,466,478,463,461,489,520,547,560,547,518,485,467,483,492,489,502,529,554,540,517,506,534,571,617,648,657,657,673,709,722,746,767,791,819,854,898,963,1022,1034,1025,989,961,928,902,870,839,815,794,776,762,755,749,747,742,723,697,682,681,674,643,615,633,663,690,711,727,722,696,658,623,584,549,527,500,476,469,472,479,486,485,483,478,468,456,448,446,431,408,383,356,330,322,322,320,305,291,287,291,310,323,325,326,338,355,367,379,388,398,404,401,409,418,409,387,355,337,344,361,353,325,308,292,278,262,241,220,211,229,245,268,290,282,272,251,235,229,212,189,167,150,154,152,128
204,201,202,205,212,214,231,259,286,305,326,332,333,324,320,337,365,392,421,445,462,474,479,478,480,475,476,489,507,508,501,502,520,540,559,580,591,607,621,626,624,620,625,636,632,616,615,622,635,661,692,707,698,675,645,621,616,627,621,599,578,559,550,546,512,469,426,394,378,374,376,368,354,340,328,311,290,265,239,207,179,160,153,150,150,153,161,157,144,128,112,109,104,96,91,86,84,84,89,91,88,90,89,80,94,129,152,160,157,145,124,105,79,75,80,82,79,75,77,99,120,142,151,163,183,197,207,197,170,146,125,133,150,159,163,184,204,213,220,210,213,236,256,270,270,267,261,269,266,255,247,244,253,259,257,262,264,265,262,270,286,294,312,334,359,390,414,444,466,477,488,500,517,531,536,532,515,484,457,444,433,413,390,396,413,435,468,506,545,576,582,576,567,555,543,531,517,507,500,492,491,485,481,487,480,473,463,448,461,471,473,474,462,462,469,471,473,480,481,479,470,450,423,396,380,374,375,365,345,326,309,293,266,248,237,225,212,198,192,209,215,218,217,210,192,166,151,151,160,169,166,159,144,125,110,108,111,112,115,120,126,121,102,85,82,79,78,80,82,95,116,139,167,197,229,257,278,278,281,281,285,286,279,271,275,281,275,261,266,283,286,286,304,326,348,369,396,423,463,499,525,556,586,605,614,635,663,685,696,693,685,674,663,657,654,653,652,649,647,649,659,668,681,693,703,706,710,701,681,670,665,668,666,655,642,638,642,644,647,643,632,626,613,598,587,572,549,526,512,508,515,515,509,508,501,496,492,484,468,447,428,405,381,354,329,314,301,295,285,276,252,219,192,180,196,218,228,223,204,187,187,200,210,229,253,280,310,328,323,319,313,308,302,294,281,272,268,266,254,247,236,216,200,191,186,182,172,165,157,148,131,119,135,166,176,172,167,159,142,119,107,105,104,103,105,107,106,107,108,112,112,114,114,111,114,115,115,114,112,114,116,116,112,111,111,110,111,111,112,113,113,114,115,117,121,119,117,115,113,115,116,118,121,122,134,151,160,169,174,168,159,151,147,147,147,144,143,148,155,154,152,148,146,143,146,161,176,183,182,179,172,165,166,175,179,187,194,195,193,202,221,239,231,212,193,179,178,200,230,237,219,200,187,172,177,179,176,175,180,191,208,212,213,209,209,221,244,252,257,263,265,257,244,228,214,205,212,219,214,217,218,216,206,203,210,214,217,222,226,230,226,224,230,232,231,231,239,249,272,297,320,341,363,372,378,375,362,349,344,347,346,345,341,332,325,309,273,251,251,259,258,256,247,236,240,236,231,237,223,205,214,242,268,275,277,269,290,313,315,311,322,349,377,383,388,405,427,422,398,362,332,296,259,218,202,208,236,267,293,319,343,367,401,438,474,505,524,525,507,490,466,423,378,340,301,305,343,381,416,414,376,343,313,295,266,250,268,304,329,332,328,338,375,410,435,470,476,457,431,420,404,390,408,437,465,492,500,474,439,399,371,349,326,310,295,260,246,253,258,252,231,234,244,244,219,185,171,171,165,145,160,196,238,276,310,326,312,288,260,224,174,136,121,110,111,113,122,134,164,196,230,260,268,260,265,263,255,241,243,254,273,304,341,367,382,392,405,427,458,488,507,518,524,531,539,557,574,582,598,622,654,684,715,752,776,808,834,849,842,832,812,798,789,770,756,761,770,780,782,780,772,763,738,707,669,641,611,585,562,547,525,500,457,416,390,372,364,365,364,365,351,352,364,370,368,369,364,347,314,290,275,257,234,222,210,196,186,177,181,184,192,197,187,172,162,152,137,133,131,129,125,123,123,124,122,132,157,174,189,195,178,155,140,132,127,129,141,142,123,108,104,104,106,107,105,104,103,102,108,125,133,129,133,129,125,120,119,116,111,105,101,99,98,100,100,99,105,110,110,103,98,104,112,117,127,130,132,147,159,165,174,183,190,193,179,173,179,174,158,145,143,141,143,143,136,126,126,120,110,100,93,91,92,93,94,104,125,131,135,154,177,198,218,238,262,283,304,319,327,328,324,335,333,344,367,394,413,426,430,420,410,404,395,381,364,334,292,257,236,218,212,219,235,245,247,245,233,216,214,216,207,208,220,237,260,264,260,249,239,242,252,268,280,280,271,257,229,202,199,218,250,281,310,342,358,377,403,432,446,444,429,430,464,493,514,506,497,521,554,580,590,570,540,512,523,537,552,549,540,561,588,584,556,537,571,607,645,673,697,700,697,714,737,772,802,830,854,881,923,986,1033,1019,981,947,911,885,863,839,820,794,772,753,737,725,719,717,712,698,679,653,636,630,615,598,615,642,662,691,714,718,704,673,644,589,535,491,451,416,399,407,410,413,414,420,417,412,410,416,426,424,406,380,355,332,323,330,340,330,319,318,321,333,345,350,347,354,368,377,380,390,401,410,406,410,417,408,382,351,320,315,331,333,315,300,284,269,253,233,216,207,217,243,268,285,279,260,240,232,234,233,221,200,177,179,174,151
229,216,208,204,201,210,235,263,280,285,291,295,300,309,327,348,374,397,414,433,446,448,447,445,443,447,461,482,507,523,521,520,532,554,583,607,620,625,644,654,657,667,671,682,680,671,673,682,687,698,709,688,655,619,587,566,565,583,591,575,547,515,506,515,491,462,424,387,352,339,335,325,313,303,291,283,278,261,233,200,175,172,183,186,179,177,175,165,144,127,118,108,103,99,97,92,86,86,88,85,87,91,88,81,89,118,129,122,111,96,77,71,74,73,74,71,72,81,95,120,132,136,151,171,196,213,219,208,185,164,136,126,135,146,154,170,183,187,177,186,205,222,233,250,257,267,277,290,293,285,279,275,277,284,289,294,290,292,298,313,320,326,344,363,388,406,424,449,483,510,516,521,533,535,529,514,489,454,421,406,403,390,371,382,399,430,459,489,524,562,588,593,594,587,578,567,559,550,544,541,538,533,529,532,529,520,499,479,486,496,491,487,473,461,452,454,450,451,447,444,442,428,399,369,343,327,327,317,306,302,300,287,273,263,249,230,205,186,172,168,175,189,190,189,178,163,144,133,139,142,142,133,116,106,107,120,127,132,138,137,129,116,93,82,79,77,77,81,86,100,124,144,174,214,250,279,278,266,261,248,249,244,238,246,263,266,244,243,267,284,292,299,317,339,366,395,418,445,476,511,539,569,592,612,627,652,679,681,675,667,654,643,641,639,636,634,636,633,631,640,653,664,670,682,691,690,694,694,698,701,697,692,672,640,618,612,615,609,603,591,581,574,565,555,543,532,511,493,477,476,483,482,476,470,463,456,463,470,464,446,429,415,400,385,369,352,334,319,297,274,251,228,209,183,180,188,204,213,203,186,176,191,207,228,258,282,309,322,315,317,307,295,284,272,261,254,247,243,239,246,240,229,220,213,207,203,194,188,183,172,152,129,121,133,141,139,130,123,110,105,103,103,103,104,106,103,104,104,105,106,107,109,107,107,109,110,111,112,110,110,113,111,110,112,111,109,111,115,121,130,135,138,142,153,155,146,136,127,129,133,136,140,139,131,136,151,164,172,177,172,164,157,155,152,150,144,140,143,151,156,159,155,152,146,146,160,177,186,187,186,182,172,175,183,193,202,212,210,207,214,227,229,221,206,193,180,183,208,234,242,226,205,186,175,187,192,188,181,180,184,196,202,209,220,228,233,251,275,286,293,293,279,261,238,218,210,224,234,231,231,226,216,208,209,218,226,228,234,243,248,244,239,245,254,251,247,266,272,285,301,315,336,351,359,363,365,357,338,317,315,318,319,310,303,295,279,259,242,234,242,239,236,241,229,219,220,216,227,213,193,195,218,234,249,249,259,284,284,286,298,323,342,340,340,354,383,394,381,362,336,306,270,229,197,198,219,246,280,315,346,375,401,426,458,494,523,525,494,467,446,430,400,358,319,284,286,316,356,393,408,373,337,303,283,254,238,252,279,293,290,299,326,366,399,426,450,455,444,413,388,375,368,390,420,452,484,504,493,462,434,401,373,357,328,309,290,283,296,307,295,274,278,297,300,265,235,216,217,201,156,146,182,222,250,269,278,266,244,220,184,137,116,112,121,138,152,166,160,181,216,256,292,307,301,307,318,309,293,291,292,282,287,308,327,342,363,384,408,428,447,457,466,481,492,506,525,547,570,601,632,667,694,721,748,781,809,840,857,861,852,834,819,800,789,786,788,792,796,810,806,792,764,727,693,656,626,590,560,536,510,489,460,428,413,406,403,404,407,406,410,394,391,398,403,397,388,371,340,308,285,257,232,217,206,189,189,192,201,202,210,216,205,188,166,151,141,143,153,140,128,125,123,121,123,121,125,145,162,174,176,161,139,130,125,124,132,136,130,120,109,106,105,109,111,110,105,104,103,97,98,98,95,96,96,95,95,94,92,92,91,90,92,93,93,89,89,92,96,102,99,99,107,111,119,123,120,119,135,143,150,159,167,177,177,167,164,167,158,141,136,136,141,144,144,137,127,124,115,103,95,90,91,94,95,96,100,112,124,137,157,176,199,211,229,251,276,298,320,339,347,350,355,363,377,391,399,405,407,409,403,399,401,402,387,364,337,308,279,260,227,199,200,207,203,205,209,209,204,200,198,198,211,229,232,232,228,221,219,215,219,226,243,254,253,234,212,202,195,202,216,243,285,325,363,388,412,431,459,485,490,479,477,488,519,545,549,540,562,590,614,615,591,570,561,576,599,607,599,592,601,619,627,603,585,595,624,655,680,708,730,740,745,758,781,809,839,872,896,925,966,991,980,951,919,888,861,833,808,800,786,772,773,763,740,714,694,683,678,669,647,613,595,586,575,589,615,646,673,679,672,668,657,639,583,521,469,418,369,340,344,340,342,351,363,374,387,387,385,392,397,382,362,345,319,300,313,328,327,332,334,333,328,338,350,344,340,348,355,361,372,391,401,402,403,407,402,385,352,307,282,290,305,310,296,277,261,250,235,215,200,213,238,259,276,269,247,220,205,206,218,224,218,195,186,183,166
244,232,225,219,211,208,218,245,256,260,269,285,300,314,332,355,372,391,403,409,407,401,401,408,419,432,455,480,507,528,540,542,550,563,585,618,636,646,662,677,690,704,710,724,733,730,734,738,743,740,708,662,623,568,534,509,510,542,554,539,510,477,462,464,466,454,440,405,362,326,299,285,279,271,255,242,238,227,209,190,185,202,222,221,211,200,190,173,155,142,133,122,112,109,108,103,98,94,90,92,95,92,88,84,92,104,100,94,85,77,74,75,77,76,76,76,96,118,131,141,154,159,161,175,199,223,235,228,207,183,163,142,128,124,137,153,153,149,151,164,180,196,212,227,241,262,280,304,317,319,320,312,307,312,325,323,318,320,331,353,365,373,384,408,436,445,457,479,501,520,516,508,501,501,502,477,447,413,384,370,363,348,361,393,419,446,471,496,525,554,578,592,597,592,586,581,578,575,578,578,577,575,573,574,567,545,515,499,493,486,469,455,444,434,426,423,421,415,404,399,401,405,391,365,332,308,285,270,264,268,275,281,280,275,264,237,202,180,165,149,147,158,159,168,179,178,162,140,128,126,118,109,111,122,126,130,139,154,159,146,124,104,101,93,81,79,80,81,85,96,121,141,170,207,243,273,269,242,230,212,205,201,212,233,227,216,211,231,259,279,291,303,318,332,357,392,424,453,480,506,542,580,601,628,644,666,682,664,649,637,624,622,619,620,617,619,618,615,614,627,645,664,682,704,720,722,716,710,721,721,704,683,653,620,597,590,583,576,566,555,543,535,528,517,505,496,479,458,446,446,450,446,437,430,423,433,445,451,445,426,409,400,394,391,375,355,340,321,297,269,250,232,212,177,156,168,188,200,193,173,163,182,203,226,257,285,308,313,306,302,295,283,275,258,241,228,217,214,231,241,235,229,226,221,213,202,189,182,180,169,160,139,118,113,115,111,108,105,100,101,103,104,103,105,103,102,103,104,104,108,110,114,111,108,107,114,113,110,109,111,110,110,110,112,112,116,123,131,140,150,159,169,173,166,166,153,137,135,142,151,161,167,163,153,139,134,150,166,175,173,170,162,160,159,155,148,143,145,148,155,164,167,161,154,150,162,180,189,190,189,186,181,187,194,206,221,230,229,221,226,227,224,216,206,197,183,181,192,211,225,228,214,199,182,185,191,193,190,182,182,191,203,220,241,260,262,261,267,276,282,287,284,260,238,218,221,239,251,254,242,233,224,216,213,228,237,245,251,260,265,264,259,268,278,280,277,288,298,309,314,323,328,336,337,333,338,346,334,309,286,287,291,282,275,267,257,242,238,224,222,226,218,217,219,210,198,202,208,205,191,186,202,221,237,245,258,266,269,290,308,317,312,298,299,331,356,352,340,319,299,274,244,200,185,204,236,267,298,334,372,399,429,458,483,505,505,488,469,436,404,389,377,346,310,275,272,297,333,377,385,353,319,289,268,240,224,230,247,263,283,311,344,380,407,434,431,423,422,400,371,348,349,373,404,438,473,499,505,484,458,430,405,381,359,346,329,337,345,359,344,317,321,341,337,305,278,265,239,201,154,140,169,194,212,231,237,229,214,178,141,111,105,116,130,146,170,191,185,195,236,287,325,343,339,346,363,358,338,345,341,316,308,335,354,374,386,390,392,407,425,433,447,460,473,494,529,563,590,618,649,677,705,734,760,784,809,837,861,878,874,859,834,814,813,818,817,821,827,829,809,776,735,702,665,629,602,571,543,515,485,467,442,433,437,437,441,443,442,440,436,429,426,423,415,399,379,350,321,291,264,239,220,203,197,201,207,210,225,230,218,198,182,170,157,158,152,152,159,146,140,132,127,122,119,120,121,129,143,156,147,133,124,131,139,136,139,141,135,124,116,107,108,117,125,126,120,110,104,100,97,96,95,97,96,95,95,95,94,95,96,93,93,91,90,90,90,91,97,102,95,96,101,103,109,113,111,111,123,129,132,139,150,155,151,137,140,145,135,124,124,130,134,142,139,128,124,120,112,103,93,91,93,95,95,96,101,110,123,140,165,177,177,186,204,223,243,276,308,330,347,359,367,379,386,392,381,372,373,373,372,375,375,376,372,356,332,314,283,251,216,187,175,187,191,187,181,178,179,178,177,175,180,189,190,191,193,191,190,189,186,183,191,196,196,194,201,207,224,235,222,231,266,296,323,360,395,433,472,506,528,531,525,530,549,570,585,592,602,622,644,647,624,606,612,629,649,659,655,652,657,671,671,648,631,641,655,667,697,719,744,771,788,799,807,819,838,857,883,894,896,888,874,877,875,864,843,820,794,766,757,762,782,790,769,740,712,686,669,657,640,627,610,590,571,569,589,612,625,628,628,624,613,593,549,494,446,394,349,306,298,300,302,312,331,350,366,366,366,365,358,354,351,328,295,279,285,296,302,312,322,315,301,301,309,310,310,307,308,322,343,373,384,389,389,393,396,383,354,310,273,262,277,289,288,265,240,224,215,198,191,207,228,242,255,248,231,217,200,179,172,183,193,182,179,180,167
255,237,236,237,223,215,210,214,228,250,261,269,279,293,307,322,340,352,356,363,369,372,379,390,411,434,459,484,510,533,553,561,567,587,607,631,649,666,681,699,707,720,739,760,774,775,765,754,745,731,694,645,597,538,497,462,468,493,511,513,494,469,435,427,430,427,433,423,387,355,324,305,291,279,268,248,236,222,215,216,227,236,237,226,211,199,186,176,167,157,151,140,132,122,114,110,110,107,103,99,95,87,79,87,102,98,89,86,83,81,76,79,79,75,71,76,108,139,151,161,176,184,189,197,212,231,245,244,228,208,189,172,154,135,129,129,127,137,158,173,196,221,238,249,264,285,307,328,348,355,352,337,328,336,349,358,356,350,363,388,406,414,418,443,466,483,492,496,499,505,496,474,456,456,463,445,411,383,355,337,331,340,373,413,451,484,512,535,552,561,566,572,577,579,579,583,583,586,595,601,605,608,609,600,563,515,485,464,453,448,440,423,405,394,392,398,393,378,355,352,366,384,383,361,333,304,284,263,247,245,242,253,248,248,253,237,213,199,183,166,153,151,151,163,177,180,165,144,135,118,106,113,126,138,138,134,141,159,168,155,129,125,133,115,95,81,77,78,83,94,123,146,170,199,228,252,251,223,202,177,174,187,196,193,193,200,211,223,247,269,288,308,319,334,357,380,406,454,481,511,549,584,610,629,650,665,663,645,625,616,615,612,601,599,602,607,601,596,595,607,626,656,685,717,740,736,726,727,730,713,684,656,620,586,565,552,547,549,542,533,518,501,489,474,465,458,451,431,417,418,416,409,402,395,402,427,439,439,427,407,390,370,362,360,346,333,320,307,292,271,248,229,207,179,155,162,175,180,166,151,164,182,202,225,256,289,301,302,297,293,289,283,268,247,223,206,195,196,213,221,218,212,207,202,197,183,174,167,156,145,136,124,111,105,104,103,104,101,101,100,100,100,101,104,104,102,103,105,107,109,109,109,111,109,106,105,106,108,109,110,109,111,113,119,124,128,134,144,157,167,173,174,171,163,156,146,141,147,159,173,185,187,177,167,155,141,143,166,177,176,171,171,169,166,157,149,144,145,150,158,171,173,168,160,152,159,177,186,191,196,192,189,199,217,226,237,247,248,243,235,225,219,211,207,200,193,182,181,187,199,216,216,203,186,181,185,188,192,186,188,199,207,227,256,277,283,293,298,295,285,278,270,248,230,228,235,252,270,268,253,242,236,227,218,226,241,254,264,274,280,282,278,286,299,304,301,307,313,320,322,323,321,320,314,310,307,307,302,291,272,256,259,258,249,240,229,226,221,217,210,209,202,201,198,197,197,195,190,189,188,183,196,216,221,237,254,251,251,266,275,275,267,261,271,298,309,307,291,276,261,235,192,171,186,222,259,291,322,358,384,404,422,439,458,473,457,435,425,407,374,346,336,326,294,262,257,271,310,359,371,335,299,262,241,221,217,233,252,273,301,332,359,389,425,437,411,394,399,389,362,335,332,355,389,421,459,484,500,507,497,476,442,413,398,382,375,388,394,402,390,373,375,388,372,347,327,298,259,213,154,129,130,147,172,190,200,192,175,145,118,104,109,122,136,156,182,210,216,218,253,306,347,371,376,382,395,411,405,398,375,344,326,348,405,432,447,447,439,443,461,465,472,485,492,504,528,558,596,627,654,672,692,718,750,778,801,830,859,880,890,877,854,840,838,845,846,854,852,830,793,756,721,689,655,632,603,561,531,511,485,465,457,461,468,473,482,481,477,472,461,451,443,428,403,375,349,322,295,276,248,225,211,205,215,227,231,232,224,202,189,180,174,172,176,170,161,171,170,162,152,147,136,124,121,119,117,121,128,130,127,122,137,154,154,148,143,141,129,116,109,106,108,110,120,129,131,127,118,114,108,106,111,111,112,113,113,110,103,108,110,106,103,99,96,96,93,91,92,95,94,97,95,94,94,90,90,94,107,107,112,117,123,124,115,115,122,125,121,121,119,121,123,126,122,118,112,103,97,93,91,89,89,90,92,93,97,107,119,139,158,143,125,130,157,184,211,246,274,304,328,345,354,356,360,358,343,337,332,333,342,349,350,347,340,335,322,295,261,226,190,168,186,226,231,229,219,217,215,214,189,172,185,188,191,200,214,225,220,219,205,183,191,204,212,232,252,267,279,273,251,236,240,264,290,332,374,420,468,509,550,575,578,580,596,613,628,639,644,665,681,683,672,671,680,689,698,707,706,701,714,720,721,707,687,696,705,712,729,752,775,798,813,828,841,850,848,846,845,847,837,822,814,806,799,801,806,793,777,755,738,738,752,767,779,769,750,724,702,685,666,649,633,608,574,555,556,564,571,574,574,570,551,538,517,484,437,373,329,308,299,286,279,280,289,312,337,344,346,343,336,339,334,317,289,266,264,276,279,285,295,293,267,264,277,291,295,288,285,296,319,343,365,372,362,363,373,374,355,316,271,242,239,257,276,266,239,216,197,190,182,190,213,232,250,249,232,219,202,177,155,151,156,162,171,174,169
265,249,251,242,229,234,231,218,215,224,230,235,245,262,271,281,298,306,313,321,331,347,368,389,411,435,458,482,510,536,559,578,589,604,629,649,658,677,698,711,726,745,766,777,773,748,717,698,686,678,655,619,564,515,474,432,421,445,466,489,501,481,449,420,401,397,401,409,398,379,364,356,347,331,311,289,273,260,257,260,260,245,222,207,197,181,168,166,163,150,139,127,116,105,98,97,98,100,100,94,88,85,94,100,101,93,82,76,77,78,80,86,86,79,73,72,96,132,157,170,183,192,207,214,217,229,236,238,237,227,208,191,176,167,165,158,143,136,156,181,202,233,260,276,298,313,325,341,358,368,371,367,363,372,383,394,391,387,400,419,434,447,453,470,478,490,491,486,480,480,474,459,439,423,423,415,388,360,324,309,318,339,370,414,456,495,528,545,551,554,552,555,560,560,562,562,566,573,589,595,598,613,623,598,546,500,462,436,414,400,389,374,351,340,347,363,357,339,314,313,336,365,381,367,341,315,287,263,243,222,211,209,211,215,223,223,217,211,198,188,173,157,149,147,157,161,155,136,121,116,122,127,136,148,151,143,146,164,172,159,143,155,153,137,111,87,79,77,86,101,126,141,165,183,207,232,231,198,173,152,149,160,162,178,203,226,245,263,277,279,287,296,309,324,344,375,401,436,483,516,554,595,617,632,648,646,642,630,620,621,619,604,587,584,583,579,573,575,577,587,610,643,678,713,738,736,731,735,729,697,659,623,587,557,532,518,521,527,523,506,487,471,459,447,430,426,423,419,403,394,394,379,372,378,396,413,416,415,417,399,379,355,329,314,306,294,287,288,278,262,237,222,209,190,171,154,151,160,146,147,168,195,216,237,264,291,299,298,293,290,283,276,259,232,207,187,177,176,189,201,194,191,187,185,175,161,146,136,122,111,103,101,100,100,101,100,99,98,98,100,101,100,102,104,106,104,104,105,105,109,109,109,112,112,111,111,110,109,108,109,114,118,123,126,129,134,141,150,163,173,172,168,159,152,148,147,154,162,179,192,199,208,200,190,167,144,145,167,181,186,182,180,179,171,162,148,144,146,154,166,177,177,168,159,150,157,177,189,193,197,198,200,207,221,227,238,248,249,243,229,217,211,204,204,202,199,191,185,184,194,209,210,199,189,183,184,190,194,189,186,200,220,242,268,294,314,330,336,315,296,287,277,263,249,251,256,268,284,280,267,254,251,243,232,224,232,251,265,280,290,296,299,303,312,317,317,322,327,324,315,308,309,300,288,283,286,278,273,270,260,243,233,230,226,219,211,210,207,203,199,200,199,199,207,212,221,229,220,200,189,183,184,201,199,205,219,219,220,227,223,222,221,219,240,255,256,254,251,241,220,184,171,176,202,246,281,312,346,360,360,359,368,393,432,455,428,390,370,361,341,310,292,290,272,253,255,262,291,331,330,317,289,254,225,208,212,232,258,292,323,355,382,408,435,421,389,359,362,359,343,317,317,336,361,392,419,456,478,501,517,509,482,460,441,427,421,425,424,422,414,410,411,406,388,373,355,320,279,231,177,147,125,118,139,169,179,162,152,134,120,104,116,136,154,174,202,228,245,246,254,279,322,349,370,390,416,439,446,435,405,373,354,378,425,460,483,488,483,484,500,512,519,525,526,539,546,568,596,620,638,657,675,708,747,783,809,837,868,890,896,890,879,872,866,868,871,879,870,836,802,765,734,701,673,643,617,577,545,518,501,499,496,493,497,507,514,514,503,488,469,450,425,401,377,356,333,311,292,280,266,237,226,235,247,250,242,223,205,190,187,188,191,189,175,163,174,193,190,177,164,155,144,134,128,123,119,120,124,122,122,118,125,139,145,143,136,130,120,113,111,109,110,108,108,122,130,133,135,139,135,131,133,133,131,131,125,118,112,119,123,123,122,120,120,114,108,98,93,93,93,93,90,88,89,86,86,90,95,100,106,105,106,108,102,108,114,115,108,111,111,110,114,113,108,104,98,92,91,88,89,91,89,88,90,92,98,103,113,140,149,122,116,122,130,158,186,208,229,262,295,310,308,309,314,311,300,295,290,296,313,317,319,306,296,302,300,275,235,202,175,163,205,239,259,272,271,273,273,261,232,219,221,228,225,231,244,251,254,249,224,193,189,221,259,285,301,316,329,325,304,276,268,275,288,327,372,416,457,503,550,597,622,629,637,651,658,680,699,711,724,727,720,727,733,742,753,759,756,760,763,764,759,754,749,753,765,768,772,786,801,817,831,840,849,852,841,826,817,808,792,777,766,753,750,746,753,759,757,745,729,713,714,730,755,777,776,751,723,700,681,664,644,620,593,564,540,533,532,522,510,509,505,489,463,434,383,355,344,329,324,305,280,260,259,272,292,306,319,320,311,299,288,276,260,244,243,251,247,264,282,268,241,237,248,253,257,259,262,274,296,314,330,347,344,335,342,353,346,323,278,245,226,235,254,254,235,212,197,183,166,172,195,223,239,247,240,225,202,178,158,143,132,138,156,168,163
276,266,258,242,245,259,262,245,226,236,254,259,258,256,251,254,267,278,284,294,301,315,336,376,405,433,453,470,490,511,530,559,584,600,618,641,662,688,711,730,749,762,771,751,725,688,654,637,626,622,607,578,535,490,452,416,389,397,427,451,477,485,465,437,402,374,364,372,373,378,384,384,375,362,344,324,304,291,281,271,257,236,211,191,174,163,148,138,130,115,107,103,101,100,99,97,92,90,91,84,82,95,104,94,82,76,77,76,75,76,83,88,87,82,79,77,82,107,148,178,190,191,203,204,205,205,211,227,237,227,210,206,205,203,195,185,162,140,146,163,187,223,249,269,291,305,311,314,326,344,360,374,384,394,406,419,424,419,417,426,439,446,453,464,461,467,470,454,442,442,448,438,421,400,394,389,366,333,300,296,317,350,381,423,464,487,504,516,529,533,532,535,540,545,541,541,546,549,548,555,569,589,606,587,547,506,474,437,397,361,341,331,317,306,311,318,312,300,278,288,314,339,354,351,343,321,298,279,253,226,207,196,183,184,191,192,187,181,173,163,157,145,137,127,124,127,124,118,132,145,147,135,135,150,162,171,164,170,178,169,172,173,156,137,120,105,90,78,85,109,120,133,151,166,182,207,211,182,148,126,140,161,175,198,221,250,282,309,313,293,290,303,320,340,363,392,416,445,489,523,557,595,626,632,633,628,627,622,623,634,626,607,594,590,584,572,559,557,561,578,610,646,681,716,735,729,717,709,685,653,623,594,569,545,528,513,501,498,490,475,452,437,432,424,403,388,389,391,385,371,355,345,343,364,383,387,385,385,393,392,379,361,326,295,270,259,253,251,244,232,216,206,193,185,178,158,142,142,136,153,177,203,228,252,275,290,295,291,282,273,269,264,248,228,204,187,172,156,156,169,170,173,167,153,139,132,127,114,100,99,97,97,98,98,96,94,98,98,99,101,102,102,102,102,105,107,109,111,112,113,114,110,112,117,120,120,118,113,110,112,116,118,124,128,134,138,142,151,163,167,165,163,156,151,154,162,172,183,196,205,211,221,217,194,166,138,142,157,173,189,193,191,185,176,164,152,147,147,155,167,176,180,173,162,154,161,175,188,191,193,200,202,210,216,221,227,223,223,222,220,218,217,214,211,207,203,194,188,189,203,219,222,215,203,198,202,210,212,203,196,197,220,244,274,303,327,341,334,316,323,327,310,287,276,278,281,291,299,289,277,266,257,243,229,225,238,255,271,291,306,313,320,319,315,315,315,313,319,322,306,291,288,279,260,249,251,249,248,247,241,227,217,216,212,214,217,228,235,228,216,215,216,217,232,255,265,273,265,242,219,198,184,183,184,178,183,179,182,183,174,173,177,195,206,204,198,191,196,198,173,159,175,206,233,269,304,322,323,313,308,318,345,378,412,421,404,364,327,311,304,279,255,248,238,234,239,258,293,319,302,284,281,259,230,207,198,226,261,293,327,366,396,424,429,401,369,339,321,324,312,296,303,323,344,373,399,431,464,496,519,513,485,460,436,425,404,389,383,383,385,391,380,368,345,338,332,310,284,235,195,167,145,117,119,144,154,137,122,114,112,112,127,145,169,196,222,249,274,285,289,291,301,323,353,383,416,447,469,465,439,412,393,394,429,475,498,515,523,527,538,549,554,563,564,577,590,599,621,649,664,679,698,726,756,789,812,839,870,883,886,884,883,887,888,885,884,887,877,847,816,774,738,707,673,633,592,563,547,542,537,533,531,532,536,541,535,520,500,476,448,415,389,369,357,349,334,321,308,300,282,258,254,260,270,268,250,233,229,218,208,213,216,195,176,181,203,218,214,197,184,175,161,155,145,138,134,128,126,126,124,121,120,116,121,125,125,120,116,114,111,111,111,108,107,113,124,137,145,150,150,144,143,136,129,122,118,116,116,128,137,139,141,138,130,120,112,110,110,106,101,97,95,94,92,88,87,87,86,88,89,89,92,92,93,96,96,92,94,99,102,106,108,105,100,95,93,91,90,90,89,90,89,90,95,112,123,119,110,130,134,115,122,129,125,130,146,183,208,228,243,248,248,245,250,251,249,243,240,251,267,274,277,268,267,278,276,244,198,165,156,169,217,269,299,312,318,321,318,300,280,269,264,262,264,269,278,284,288,281,255,213,187,212,263,304,333,357,379,382,356,325,325,337,335,346,370,413,453,500,547,601,647,671,681,695,713,730,745,758,770,779,778,782,786,789,796,800,794,802,804,804,794,792,801,811,817,818,822,823,832,844,857,862,861,846,820,794,783,782,768,747,731,714,707,712,714,715,719,715,704,693,680,696,729,758,782,772,741,714,698,687,666,639,615,588,568,556,543,526,508,497,487,473,458,428,390,373,368,350,339,330,304,273,245,231,242,260,273,269,260,245,230,212,207,209,216,213,217,227,235,233,222,221,221,220,222,227,238,255,269,284,291,307,322,317,311,319,322,310,271,249,229,222,235,252,244,221,203,185,167,157,170,189,206,218,222,216,201,182,161,152,140,129,128,142,153
292,267,259,261,273,281,281,262,236,232,266,286,293,292,290,289,292,305,316,324,333,331,326,340,365,392,411,423,438,459,484,510,537,557,586,630,672,704,724,745,756,753,728,690,654,632,604,578,564,564,559,555,529,498,473,433,390,365,383,405,434,462,475,452,413,374,342,317,324,331,341,344,344,350,333,315,292,270,254,243,238,227,213,198,182,165,133,109,106,111,115,119,127,136,137,133,122,112,100,86,83,96,99,84,84,78,79,87,91,92,90,87,84,83,79,77,85,100,142,176,183,181,174,166,167,176,199,224,237,238,234,235,232,220,205,183,169,156,148,161,184,205,225,246,259,264,269,270,282,307,330,352,366,395,417,423,424,419,416,422,422,429,429,428,432,439,442,429,413,417,428,425,407,380,353,345,336,320,295,281,297,335,363,398,434,440,453,477,497,502,492,493,502,510,513,510,508,501,500,515,539,564,585,565,528,495,462,433,400,363,335,318,300,290,284,283,279,273,257,269,292,312,319,317,316,306,297,284,262,243,229,216,195,177,166,160,155,154,152,152,152,148,137,125,123,129,126,124,143,160,160,153,143,138,155,176,170,178,194,197,196,183,160,153,142,124,101,81,78,91,108,121,135,152,171,189,189,164,137,125,144,174,195,218,240,266,301,321,319,308,314,325,332,347,371,396,423,450,484,523,559,597,631,632,619,614,616,620,628,621,607,608,616,623,615,591,568,562,570,593,624,648,675,701,696,685,672,655,625,603,583,564,542,519,504,486,464,453,449,443,428,412,403,396,383,363,357,352,350,349,334,316,316,336,354,357,356,359,355,356,363,359,339,312,278,254,237,223,212,200,195,188,176,171,159,151,142,132,127,143,167,192,218,248,275,287,285,275,261,246,243,241,233,224,207,191,172,153,141,139,145,145,141,129,122,116,108,101,97,98,96,98,100,101,98,97,97,98,98,99,101,103,103,103,105,107,112,117,118,116,115,115,115,122,126,125,123,116,113,114,117,118,121,127,131,137,145,150,153,154,151,155,157,156,164,178,191,203,218,226,229,218,202,183,165,146,155,161,169,194,205,198,195,189,170,153,150,153,156,165,177,182,182,172,161,157,159,160,169,180,188,194,198,200,199,195,201,218,221,221,228,231,228,220,215,208,196,194,207,230,244,246,237,207,200,222,236,244,240,225,206,207,236,262,290,319,337,333,321,335,351,339,312,306,312,309,311,308,290,272,256,248,248,245,241,250,268,283,302,317,319,320,316,306,302,302,293,299,304,294,273,266,269,261,248,240,235,231,227,220,219,223,226,233,244,247,252,257,254,251,256,265,262,259,284,304,312,305,278,256,240,217,208,209,191,172,168,164,166,161,156,159,168,171,165,158,151,154,165,157,170,201,225,242,261,281,286,277,265,268,298,327,353,367,365,358,339,306,280,268,256,235,214,212,219,237,270,305,319,294,268,261,251,222,188,197,224,246,274,312,351,389,416,402,373,351,333,309,296,284,286,311,333,354,377,402,430,456,478,502,500,469,437,401,374,353,347,340,337,344,351,345,331,307,297,296,270,247,217,185,154,131,111,111,114,106,104,101,97,107,134,155,161,188,224,257,283,310,330,334,327,320,327,340,366,399,431,456,482,478,457,437,426,435,474,510,532,552,565,577,589,595,602,600,604,621,646,656,674,698,718,740,754,765,790,819,846,861,863,864,868,872,875,877,876,874,876,869,841,808,772,733,696,659,632,610,598,586,576,568,563,562,567,567,556,531,507,479,453,428,394,367,345,333,329,332,334,330,315,297,286,286,291,295,289,270,260,262,248,236,239,222,200,201,211,227,242,240,222,209,195,202,194,183,173,157,137,124,123,125,125,123,119,115,116,118,118,118,117,114,112,110,108,107,110,122,138,147,157,161,155,147,139,131,124,118,117,117,130,136,141,148,148,143,130,127,129,126,121,114,109,104,99,95,91,89,88,84,82,85,87,89,87,89,90,90,88,93,94,95,98,96,91,89,90,90,88,89,88,88,87,91,102,128,153,147,137,125,112,113,114,125,123,126,127,134,171,200,201,193,184,177,177,189,194,191,188,191,198,207,224,226,228,240,246,232,205,166,153,168,204,251,296,323,344,352,351,341,329,319,308,293,291,294,294,308,320,325,313,286,239,197,200,238,288,330,373,413,426,406,387,379,392,390,396,405,424,463,502,549,603,653,700,719,735,751,767,782,801,818,827,833,834,834,830,825,824,830,835,839,838,833,831,838,847,848,849,859,866,872,878,885,887,879,859,826,792,759,742,736,733,720,692,681,689,682,675,684,687,676,658,647,669,704,729,745,754,740,720,707,695,681,658,634,616,604,595,580,562,550,538,528,518,498,469,427,395,383,368,350,332,308,288,264,237,223,221,221,218,208,211,207,203,201,197,193,192,195,200,208,204,188,187,188,192,191,189,209,233,241,240,248,262,271,294,298,299,304,292,273,249,232,212,218,243,245,230,216,202,179,162,154,158,169,180,187,199,201,188,169,156,149,132,122,113,119
296,279,281,294,301,298,299,282,244,235,264,288,313,325,330,328,322,332,340,352,371,373,361,351,349,356,377,398,421,445,463,482,500,539,582,621,666,694,719,737,737,710,668,626,592,567,549,529,514,505,502,509,517,503,477,437,398,351,345,368,404,433,450,440,407,365,329,287,268,274,286,296,303,311,305,285,263,243,226,220,216,213,204,188,165,136,110,114,122,131,139,145,145,157,160,156,151,137,114,86,83,86,88,81,80,85,93,105,109,103,95,89,85,79,77,77,84,96,128,156,156,149,137,132,146,174,199,214,226,238,247,248,234,220,211,204,197,187,168,154,175,202,213,213,217,221,232,243,258,281,302,329,355,384,402,404,398,389,393,402,402,406,404,398,406,419,417,401,380,378,389,395,388,364,338,315,297,283,267,260,283,314,335,358,389,405,421,434,449,452,437,431,441,454,460,459,456,454,467,498,531,560,576,558,511,471,432,404,381,358,340,331,312,292,270,252,242,244,240,250,265,281,283,286,286,275,274,276,265,263,255,240,223,198,177,172,165,171,178,179,174,159,140,140,148,154,139,130,146,175,185,177,169,156,156,172,186,197,210,220,222,203,188,171,149,131,107,86,80,84,96,104,115,133,154,170,161,147,125,127,150,176,198,222,248,277,305,319,319,321,327,332,343,361,381,399,429,454,491,527,559,600,631,637,615,600,601,611,618,604,589,597,613,625,627,608,596,598,605,620,635,638,648,652,655,650,632,600,576,557,542,524,512,490,469,454,440,415,408,406,404,392,381,371,362,341,322,319,319,318,310,289,283,301,318,324,320,315,309,313,325,334,336,317,292,277,264,246,231,214,203,196,186,182,183,180,173,151,130,126,147,172,198,231,255,270,273,261,246,228,217,217,221,221,209,193,176,166,153,137,123,113,111,107,107,102,95,96,96,96,96,96,99,105,103,100,98,100,99,99,101,102,105,106,108,109,111,116,122,121,120,118,118,125,128,128,126,122,116,116,122,125,127,129,131,134,138,145,146,148,154,164,168,172,181,198,218,231,241,241,223,201,180,157,143,151,172,176,180,204,212,207,199,187,172,160,153,155,157,167,180,190,193,185,171,173,177,169,164,162,164,166,173,179,186,197,209,233,249,249,251,250,243,231,222,211,199,203,220,246,262,266,254,225,213,236,255,270,270,251,227,203,221,243,260,285,312,324,316,325,343,345,336,339,344,339,324,309,292,268,258,271,281,274,259,256,270,288,306,325,325,314,302,292,288,285,273,272,279,274,257,243,241,239,235,235,233,234,228,234,246,254,253,260,276,277,271,281,286,291,298,307,302,290,292,318,342,341,315,296,285,262,238,241,233,216,207,203,189,168,155,155,155,154,150,153,158,145,144,151,168,187,204,218,220,228,236,229,226,255,285,298,311,316,310,306,299,285,265,244,226,217,198,191,218,251,285,318,325,298,260,227,214,201,176,193,216,247,283,313,359,398,403,377,347,322,317,306,287,271,282,305,324,343,361,384,410,435,460,482,466,443,419,386,362,338,323,304,297,307,310,300,294,273,255,260,242,215,182,146,114,100,96,101,105,116,121,123,140,160,189,205,198,212,249,288,311,347,371,381,375,355,350,356,360,381,411,447,479,496,494,484,476,470,481,509,544,575,595,614,634,647,651,636,644,665,687,700,710,726,747,772,786,795,810,832,833,820,816,826,836,839,844,845,845,849,855,855,831,803,772,744,715,690,677,660,642,628,617,605,596,585,573,550,531,511,492,457,425,403,373,346,328,310,297,303,315,324,322,318,309,309,314,312,305,293,290,280,262,258,257,235,223,233,242,246,253,258,241,230,221,228,213,201,180,147,127,123,128,130,133,128,123,117,117,117,116,116,118,113,111,110,108,107,111,120,135,144,150,155,149,143,135,127,122,119,118,116,124,134,147,157,158,157,149,144,140,134,129,121,114,109,101,96,91,89,89,87,84,82,84,86,86,87,88,89,88,91,94,94,93,88,85,84,86,87,88,88,87,86,88,100,133,165,175,173,171,158,133,117,115,119,128,141,139,145,171,169,153,150,147,145,140,137,138,143,143,146,157,164,177,184,192,208,204,183,158,156,166,178,217,285,320,333,344,345,341,342,335,328,328,327,322,322,323,337,354,365,339,299,267,228,209,232,263,309,355,405,442,453,454,452,457,452,461,469,475,501,530,573,622,686,725,749,766,782,797,814,830,844,858,862,864,864,856,847,842,844,856,866,867,864,863,868,880,888,891,895,900,908,912,913,908,895,869,834,807,772,741,711,692,683,666,658,661,652,639,645,650,643,626,618,637,666,691,706,708,698,685,671,660,654,643,631,625,625,617,602,586,581,577,570,560,540,511,467,430,412,393,372,346,315,282,273,271,266,250,238,237,243,250,252,247,237,231,225,223,213,212,217,219,205,190,179,179,176,162,167,187,201,202,212,215,228,251,260,263,269,261,253,246,235,207,207,223,234,240,223,202,184,174,163,149,149,155,172,187,202,202,195,177,154,141,134,124,112
312,305,308,326,335,332,315,286,251,244,271,294,323,348,361,367,365,363,369,377,405,414,413,400,384,370,390,425,455,481,500,516,532,553,579,611,642,676,701,711,699,661,623,583,544,509,486,479,479,456,442,446,461,465,455,426,396,354,312,325,359,392,413,420,404,374,338,297,260,239,239,254,271,280,279,272,251,222,199,189,187,185,178,161,141,115,112,131,138,143,157,167,166,176,182,183,182,161,140,103,80,81,82,80,89,109,117,120,112,107,100,90,84,80,76,72,71,88,106,125,118,116,123,136,154,175,189,195,214,236,253,258,249,241,239,238,227,201,172,156,162,167,172,181,195,210,223,238,255,281,304,322,342,367,380,379,377,368,363,376,377,380,383,376,386,400,400,397,379,359,344,343,346,332,312,294,279,256,238,254,277,288,312,343,373,392,405,425,436,419,395,377,386,391,392,395,402,416,445,475,508,531,544,561,542,496,448,412,387,356,336,319,305,301,298,273,243,225,214,220,236,245,251,259,255,239,240,245,251,271,276,260,234,211,203,200,185,192,202,204,187,165,153,166,173,170,155,158,157,172,186,192,182,185,179,178,197,219,233,243,242,224,198,177,160,140,118,93,80,82,91,101,113,127,144,156,149,130,115,127,152,178,200,225,255,283,312,320,313,313,317,326,336,347,365,386,414,449,492,526,559,596,625,630,608,594,591,599,597,584,577,583,596,601,608,614,619,630,642,639,626,614,615,624,622,613,592,566,545,532,517,505,489,458,425,410,401,388,375,374,373,357,344,335,329,320,301,292,288,287,282,269,258,274,293,297,289,275,269,278,287,312,325,313,301,294,288,277,260,249,241,225,218,214,201,192,178,160,138,123,131,156,183,218,242,256,256,247,234,214,195,197,208,209,199,182,168,151,131,117,108,101,96,96,97,96,94,95,96,97,97,96,98,100,102,102,98,99,101,100,101,104,108,112,113,116,120,119,123,124,122,122,122,127,130,130,128,126,121,120,125,129,133,133,133,139,147,150,151,156,166,180,185,194,209,227,245,258,259,245,212,186,167,147,145,160,178,185,190,204,211,208,198,186,177,169,157,156,158,166,178,194,201,195,184,188,192,188,175,168,169,169,174,191,209,230,248,269,280,280,279,274,258,243,229,217,209,204,218,241,260,265,265,251,227,233,257,270,274,261,236,211,212,232,252,267,286,294,296,316,337,348,364,371,369,349,319,295,278,273,279,299,310,301,283,269,273,289,308,329,333,320,302,283,268,261,254,254,255,253,243,236,237,238,238,251,261,261,253,259,272,283,280,280,294,300,302,305,318,324,326,332,335,322,306,328,361,375,357,334,317,299,274,278,275,264,253,222,188,162,162,161,156,152,156,176,187,170,146,147,162,159,167,171,178,189,198,198,208,237,250,247,266,274,260,244,244,244,236,224,206,189,178,189,223,256,284,320,329,309,271,234,205,179,169,197,232,268,296,324,365,399,393,365,340,312,292,288,280,264,277,297,302,313,337,358,390,424,455,469,450,417,390,358,336,321,304,287,275,271,268,263,252,243,223,215,210,186,152,111,95,108,124,135,147,158,162,172,192,216,243,258,257,257,274,298,332,380,410,423,415,387,377,392,398,403,419,433,460,498,520,527,533,524,517,524,550,577,607,636,659,681,687,681,686,704,724,734,742,754,768,785,805,813,823,820,794,766,766,779,789,791,799,802,811,827,838,843,843,824,798,777,751,738,723,704,677,659,650,627,604,574,548,528,513,489,471,439,409,383,364,341,317,291,269,271,285,290,303,311,306,305,303,294,291,294,294,287,283,282,273,261,265,271,272,274,275,274,258,238,218,205,189,168,149,130,126,136,148,158,147,136,126,123,120,118,116,118,115,111,111,113,113,114,118,132,149,160,162,159,154,142,132,124,119,119,119,118,126,133,141,153,163,165,157,144,139,135,128,115,108,110,111,107,94,88,86,85,85,83,83,86,84,84,86,89,90,93,96,96,92,88,86,85,85,85,86,88,87,88,95,106,144,176,191,210,211,190,167,144,139,125,137,147,144,147,143,145,160,176,184,191,182,162,149,135,130,130,134,136,139,145,151,153,152,153,147,158,181,204,240,277,297,300,303,304,309,310,306,322,342,350,348,354,360,375,388,392,361,326,287,254,215,217,247,293,338,382,424,466,494,509,521,515,525,528,538,553,577,616,665,721,754,766,779,796,813,829,839,849,862,871,877,881,873,864,854,856,867,880,884,885,888,891,902,917,928,931,935,939,938,938,924,898,868,845,818,787,760,735,706,681,662,648,640,628,612,605,609,606,595,592,600,619,645,665,670,663,651,642,629,619,611,600,603,609,609,600,595,589,588,588,583,562,539,502,463,442,417,391,351,316,306,320,324,315,307,289,284,297,303,308,299,289,280,266,256,249,249,253,249,240,231,220,219,211,184,166,158,161,181,191,200,215,220,218,225,230,227,227,231,216,201,191,201,216,220,214,206,186,175,163,144,139,150,166,184,200,206,194,171,165,165,161,158,140
349,329,337,358,364,346,317,278,258,255,257,278,309,348,378,403,416,416,420,421,442,461,467,454,438,412,405,436,473,506,535,563,584,599,612,625,649,673,686,687,673,647,615,574,529,490,453,429,423,407,386,389,403,410,415,399,369,338,295,306,342,380,400,393,374,355,334,309,280,250,225,220,242,259,267,268,251,231,206,180,163,155,147,133,117,110,123,144,159,162,167,181,192,204,214,217,209,186,168,140,110,93,85,94,125,141,136,131,129,125,110,95,84,80,76,71,67,76,89,98,112,131,143,146,155,161,164,187,213,237,257,269,272,272,270,259,233,204,176,167,181,178,171,198,225,246,264,279,289,302,324,347,363,372,373,369,360,354,348,343,350,362,360,359,371,377,376,389,388,366,336,317,310,301,290,282,268,241,229,256,287,308,335,357,382,405,428,447,445,410,368,344,344,342,343,340,342,376,412,448,476,490,508,536,552,530,487,447,410,372,342,317,297,282,275,265,250,237,217,204,199,204,223,233,225,211,207,221,246,264,270,262,251,238,232,217,211,221,228,222,200,171,158,168,183,184,174,184,179,178,195,208,205,216,212,211,208,231,258,267,261,235,206,183,161,139,106,85,76,78,91,100,105,118,136,136,119,109,107,131,171,195,221,247,269,288,303,301,290,291,305,319,325,339,356,379,410,448,494,524,558,594,619,617,599,584,579,579,577,564,568,572,575,579,591,605,619,639,647,635,614,597,592,586,573,564,550,541,523,510,490,471,453,424,388,371,362,353,344,337,328,316,308,299,295,299,290,271,260,255,253,248,245,266,284,278,259,239,235,246,268,304,322,325,326,319,311,303,285,279,270,258,246,232,211,192,181,166,137,120,125,153,180,204,224,233,231,224,215,195,174,176,190,189,173,158,137,119,106,96,95,97,95,93,94,94,98,98,95,97,99,103,103,102,108,106,106,107,106,105,107,111,114,117,118,122,126,124,125,126,127,131,136,135,135,138,136,132,125,124,124,130,135,137,138,142,149,153,161,169,181,198,213,223,230,249,267,275,261,235,207,185,165,148,150,166,172,178,195,211,213,208,194,183,180,176,166,161,162,163,171,194,209,209,199,203,205,196,182,182,185,181,190,215,237,260,277,286,291,293,292,288,273,253,235,223,216,205,210,218,227,240,249,254,244,247,260,267,263,248,233,219,210,218,234,251,265,274,292,316,335,355,375,385,371,346,317,290,287,300,311,319,327,328,313,289,287,310,324,337,337,321,305,287,268,254,253,255,255,259,254,253,261,265,256,264,286,285,277,278,282,293,300,300,306,323,332,333,336,338,339,343,354,345,336,343,362,384,381,356,340,318,302,307,308,283,252,222,189,165,168,187,185,176,192,210,225,212,173,149,147,144,146,150,152,156,162,174,197,213,210,210,227,236,225,209,198,201,202,194,187,174,168,189,221,239,252,282,306,302,269,231,194,169,165,200,237,278,313,335,370,405,408,377,348,323,297,276,266,249,255,281,302,319,332,352,372,408,454,477,469,437,402,367,336,318,311,300,272,240,228,221,215,211,201,184,176,157,122,99,109,136,158,177,196,209,213,218,229,256,287,308,311,315,311,316,334,372,412,452,444,415,409,427,442,453,457,461,479,507,540,559,570,563,545,552,577,596,618,642,675,701,719,723,730,743,760,770,774,780,794,802,810,806,797,784,756,729,726,738,744,749,756,768,783,803,818,830,835,825,805,786,764,754,740,712,685,666,635,612,581,549,524,509,492,470,446,419,392,363,335,316,300,287,260,248,257,259,271,271,265,258,256,250,266,276,266,256,271,287,288,291,293,294,285,278,268,254,232,213,203,187,164,140,128,130,142,155,163,161,147,146,136,127,125,125,127,124,118,116,115,112,121,130,138,149,166,175,175,172,167,157,148,137,130,128,122,124,140,148,147,150,160,164,156,142,132,123,115,112,114,118,117,117,104,92,88,86,89,91,88,87,86,87,85,87,91,92,97,96,92,89,84,83,85,86,85,86,88,97,112,138,161,186,217,234,241,226,199,188,182,161,149,144,149,161,175,195,219,234,242,251,235,207,174,152,141,140,144,146,160,168,168,154,143,141,143,155,179,205,222,240,260,268,273,281,288,300,310,324,352,363,361,369,387,406,418,416,385,356,318,281,246,219,232,276,318,361,397,438,478,511,546,564,574,580,591,603,631,659,695,741,767,780,798,811,825,835,838,846,856,866,876,884,881,877,876,885,896,906,912,911,906,912,924,939,951,960,966,970,962,952,932,904,880,856,829,798,774,758,742,722,706,694,678,665,645,614,596,574,562,566,572,580,591,604,608,607,606,606,601,597,587,576,574,576,579,574,570,573,575,575,566,551,533,504,475,453,425,389,362,354,355,361,359,356,353,335,324,339,346,346,343,341,328,309,291,282,281,282,282,278,268,264,260,244,220,202,184,161,152,163,172,188,186,194,207,214,212,211,212,212,200,187,184,190,194,198,195,190,179,165,144,136,150,162,173,188,194,187,181,187,188,184,175,158
367,360,377,393,381,349,303,268,270,285,272,267,290,333,373,413,448,463,474,472,478,492,508,502,470,441,425,438,471,505,542,578,611,631,644,657,668,666,658,645,636,627,611,583,550,513,470,420,382,368,351,348,354,354,356,359,350,311,279,298,332,357,363,353,333,317,300,288,274,257,230,211,216,233,248,254,245,227,206,185,161,140,121,113,114,129,144,160,180,191,188,196,210,224,235,237,227,203,183,162,150,144,137,146,155,159,155,149,151,141,124,103,83,79,75,73,67,75,84,91,113,125,125,126,131,128,143,172,195,217,232,245,265,278,283,273,253,223,195,181,202,214,202,211,242,267,291,307,324,341,361,380,399,402,394,373,356,346,339,328,329,342,335,332,344,341,350,371,377,367,341,317,292,274,262,264,255,220,206,244,286,316,337,354,379,406,432,447,442,409,361,327,313,313,313,324,336,371,405,427,440,450,473,495,520,527,509,474,430,394,356,317,289,268,250,235,215,204,198,194,181,177,193,202,197,189,198,221,242,256,265,267,270,270,259,247,246,250,241,222,197,167,157,173,192,207,210,208,203,203,221,229,230,232,230,241,243,241,266,280,263,229,199,173,155,132,110,88,77,75,82,89,101,117,127,117,100,96,111,144,189,216,238,265,274,274,276,272,259,274,298,315,318,338,359,384,413,455,509,537,570,599,621,610,587,571,559,549,542,539,554,552,541,552,568,585,601,619,630,629,618,599,586,576,571,564,551,541,529,509,482,449,419,392,364,343,335,323,313,301,290,287,280,274,264,270,269,253,236,228,222,224,243,264,264,251,236,215,214,241,277,311,331,345,348,333,314,303,295,290,285,274,252,233,209,191,178,164,138,115,114,139,168,186,206,216,212,203,190,170,159,157,165,160,149,131,110,99,96,96,96,95,97,95,94,96,98,97,99,99,103,107,105,106,107,108,111,110,109,109,110,115,119,121,122,126,132,129,132,134,135,133,138,136,139,141,140,136,127,124,121,129,137,142,145,144,150,160,172,184,196,214,236,243,247,253,263,261,245,231,215,198,174,155,153,157,162,178,196,211,218,211,200,196,192,182,174,171,169,168,171,189,206,209,207,211,214,203,196,203,199,193,193,205,232,251,265,270,278,282,282,286,281,262,244,233,226,222,221,219,220,244,265,277,276,279,284,282,269,255,244,231,216,218,234,255,270,280,294,312,327,344,365,374,363,343,329,320,321,341,348,340,341,347,333,306,302,318,335,343,342,327,313,299,283,273,281,283,287,288,278,272,278,283,282,283,299,303,291,286,294,309,321,324,326,331,338,341,341,337,334,329,343,342,336,340,357,383,394,373,356,336,330,322,309,287,248,217,179,164,178,207,211,202,227,252,269,262,231,193,173,165,150,147,146,140,142,150,165,180,180,180,191,199,197,184,174,175,184,182,172,162,175,191,201,204,216,249,274,279,254,215,175,158,173,205,242,274,303,331,359,391,400,374,343,313,288,266,250,239,266,305,341,364,375,380,390,423,466,491,483,453,415,378,357,345,336,317,287,246,211,181,171,168,170,162,135,107,97,105,127,148,161,189,225,253,268,271,275,287,328,357,378,369,375,374,376,396,428,458,462,445,450,475,495,506,496,491,506,532,564,593,604,596,580,587,608,637,645,661,687,715,742,757,771,783,795,804,804,802,802,797,786,770,755,742,724,697,691,702,702,704,721,735,748,772,790,804,809,800,781,762,747,738,720,689,660,639,623,601,563,523,493,469,452,434,416,394,371,346,320,298,276,262,243,227,227,224,231,234,233,221,221,223,234,242,224,218,239,265,287,296,295,280,269,252,234,217,198,189,200,191,156,135,129,138,157,173,177,168,160,153,140,130,130,131,137,138,134,131,121,112,120,134,143,146,156,164,173,176,176,173,164,157,149,140,129,127,150,162,166,169,173,172,162,140,127,120,119,123,127,127,124,118,116,113,106,99,94,90,89,89,91,92,86,86,88,88,90,93,91,87,84,87,91,86,84,84,95,112,124,139,155,192,227,254,268,257,238,232,231,214,193,181,202,218,232,251,276,291,299,299,273,236,192,175,179,185,177,174,198,212,204,194,179,161,158,166,165,171,198,237,266,285,294,303,313,324,333,336,353,368,380,389,408,430,441,434,402,380,347,305,270,234,218,248,288,331,376,416,457,494,525,558,582,602,611,625,647,668,689,719,743,765,791,808,816,822,822,831,846,855,863,876,891,897,910,924,937,942,945,940,933,930,933,940,955,972,982,982,962,943,926,902,882,859,837,824,806,787,770,751,737,727,718,701,685,668,637,593,548,532,529,524,529,533,532,539,553,552,545,539,539,533,536,547,557,558,551,546,549,546,535,521,497,475,467,454,438,416,401,394,396,392,395,398,393,372,360,377,382,382,380,372,357,339,328,324,325,328,323,317,313,313,301,276,244,229,215,184,154,139,141,151,162,177,186,189,191,192,195,206,197,183,171,169,177,179,177,176,173,163,148,135,139,146,157,173,187,195,194,194,191,189,177,157
385,395,404,404,375,336,287,269,297,332,318,286,281,320,365,408,442,467,485,499,513,529,542,528,503,479,458,460,480,516,554,593,627,650,665,667,651,625,600,583,577,578,571,570,562,533,483,440,409,387,356,326,308,299,293,301,302,278,249,270,295,305,312,319,311,297,284,267,242,234,224,207,201,211,233,240,226,207,182,156,132,120,120,127,137,149,168,182,198,212,215,219,229,246,258,257,244,223,202,186,191,196,192,191,181,170,157,144,138,127,112,93,77,72,74,76,70,72,73,77,84,92,94,94,100,106,121,141,164,185,201,223,244,275,291,283,257,231,221,217,227,251,248,239,238,247,267,291,319,347,370,393,408,419,412,390,366,352,339,320,312,314,314,315,320,318,331,349,357,351,334,320,301,279,252,235,229,207,202,229,257,276,303,336,373,407,432,429,416,395,342,310,296,293,306,326,349,373,387,395,420,444,452,465,471,479,479,466,438,405,361,330,306,276,259,238,225,215,202,188,180,175,166,167,165,174,188,204,216,225,239,252,262,271,277,276,267,250,229,202,186,170,164,179,202,222,238,231,229,239,250,251,238,227,237,258,272,268,280,279,247,215,190,176,155,135,114,92,78,75,75,76,83,100,107,96,88,99,128,165,195,216,238,256,253,248,246,243,252,266,279,290,312,337,356,384,409,444,491,531,568,605,611,597,575,554,541,523,508,522,538,535,522,524,537,557,576,599,617,627,626,616,606,594,584,571,561,549,533,513,488,457,431,401,379,358,336,313,285,267,260,252,248,252,244,237,238,237,221,207,203,225,249,254,242,233,213,195,211,244,274,304,323,345,346,331,317,314,300,289,283,263,242,221,200,189,177,169,149,124,108,118,145,172,188,195,189,182,181,167,151,136,137,133,114,98,97,96,95,94,96,96,97,98,99,98,101,101,102,102,105,108,110,112,112,113,115,114,110,109,115,119,125,126,128,130,132,134,136,137,135,134,136,137,141,143,143,133,125,124,127,135,143,146,152,154,158,170,181,193,213,235,253,263,265,262,253,242,228,213,198,189,173,153,152,166,181,196,212,220,223,223,219,210,198,188,180,175,172,172,176,182,193,199,203,207,212,204,202,215,219,210,199,188,191,206,222,234,249,262,277,288,285,266,250,242,237,236,230,226,223,245,267,284,301,310,311,305,292,272,262,246,232,236,235,242,252,264,272,285,303,324,344,353,358,359,355,355,359,362,365,350,346,355,347,332,327,334,339,339,340,340,332,314,301,300,306,307,307,302,286,288,298,304,306,309,314,317,304,303,320,332,336,337,334,328,325,325,324,321,310,306,317,323,328,331,349,377,389,380,375,365,352,327,302,271,234,189,170,169,197,227,236,221,238,274,305,307,286,260,239,225,203,173,162,157,141,138,141,148,154,162,175,180,172,169,170,167,169,171,159,156,176,192,192,186,198,217,241,250,240,204,165,146,161,198,230,259,278,302,335,364,372,352,324,297,270,251,237,244,272,309,347,377,395,412,424,446,481,500,488,460,427,408,386,361,333,309,281,245,214,187,163,139,128,112,99,95,105,132,149,167,178,190,228,268,297,319,330,339,367,394,421,417,419,417,418,431,460,487,488,478,487,510,538,545,531,535,553,584,600,626,642,635,619,623,636,657,678,697,716,736,757,780,805,815,813,805,791,778,764,749,737,721,709,695,683,662,651,653,655,668,686,701,719,739,759,773,774,760,747,736,719,706,681,653,630,604,593,580,549,514,481,450,422,403,382,368,346,324,303,278,249,234,228,223,222,215,205,196,194,191,191,195,189,185,184,198,217,236,256,264,274,268,245,224,199,178,166,170,178,168,145,130,130,149,177,189,190,180,164,144,134,131,135,143,147,148,147,139,130,118,119,128,132,139,143,153,165,176,185,190,185,174,163,147,136,137,155,173,180,186,193,189,175,150,132,128,134,147,151,145,134,125,131,129,116,105,100,97,99,95,93,93,89,87,85,86,88,90,88,82,82,87,87,88,96,94,100,113,123,149,175,203,234,272,294,299,291,291,284,268,235,220,241,271,284,301,320,340,338,305,263,220,196,201,214,218,199,184,218,237,229,229,238,223,208,215,202,169,178,213,263,299,324,336,337,338,350,368,382,393,408,426,442,459,465,464,433,396,350,312,282,259,225,235,271,306,339,379,421,456,483,511,543,564,576,589,606,630,655,668,683,700,723,743,765,784,805,830,853,873,883,896,913,928,942,951,953,944,935,924,916,910,910,915,929,941,954,962,955,941,926,911,896,884,871,860,844,827,803,786,771,754,740,734,718,695,664,606,559,525,495,470,461,464,463,469,492,497,481,474,475,475,491,510,520,516,502,496,510,522,515,508,491,480,481,479,463,445,438,431,425,419,428,442,438,417,404,412,416,415,408,389,374,364,362,365,368,367,362,355,351,348,330,303,273,249,233,213,188,165,145,133,133,147,163,168,172,177,187,198,189,181,172,161,160,158,160,163,157,146,132,125,129,136,150,167,184,193,194,187,181,179,176,167
412,402,388,368,342,304,277,292,348,369,349,307,290,316,354,387,399,410,435,465,504,539,568,562,542,515,505,501,511,535,574,612,642,666,671,646,614,580,546,522,509,509,509,515,523,520,492,467,452,426,388,353,336,318,296,270,256,244,226,237,254,262,274,288,290,285,272,252,229,210,198,180,181,196,207,205,191,170,144,126,125,136,153,156,151,165,181,192,203,218,232,245,261,274,287,284,262,236,223,223,224,223,216,203,186,166,147,129,109,96,89,84,78,72,73,77,69,64,65,67,72,78,78,83,106,129,145,157,169,179,203,231,254,283,302,291,267,257,256,253,253,274,288,286,279,269,271,285,300,326,348,371,392,407,418,410,385,364,351,335,321,310,303,306,301,304,307,315,320,319,313,302,291,273,257,223,204,191,193,218,233,253,281,332,382,417,417,387,369,363,327,292,283,292,311,327,342,355,368,392,426,454,455,434,419,424,430,424,415,391,367,343,320,293,278,270,266,255,236,218,206,197,180,161,151,161,172,183,191,204,211,221,236,251,268,283,278,256,232,209,198,190,177,189,213,239,255,251,254,267,270,253,224,212,227,247,263,269,278,265,236,205,187,170,147,123,103,89,79,76,74,74,75,79,83,85,91,108,140,175,199,217,231,229,231,234,229,246,257,263,273,287,325,354,373,392,416,449,486,525,567,598,594,573,554,538,522,505,488,498,511,516,503,502,522,543,565,587,600,610,618,619,606,582,559,546,535,526,519,514,500,481,456,424,397,379,353,327,304,283,255,230,221,223,223,213,215,224,210,189,197,221,237,231,218,204,188,185,214,242,262,286,316,341,349,344,331,317,297,288,282,265,245,229,208,194,179,169,157,132,106,108,123,142,164,175,176,170,164,158,152,134,117,103,94,93,96,96,95,95,96,97,97,99,99,101,102,104,106,106,110,113,114,116,119,120,121,124,118,113,114,119,127,128,132,138,136,136,138,138,133,133,138,141,144,145,142,132,127,128,133,138,145,152,159,170,182,194,206,215,238,261,268,264,250,233,223,217,207,194,178,168,159,154,164,176,193,204,212,223,231,230,226,216,196,188,181,174,174,177,181,183,193,202,212,220,221,212,214,226,229,219,205,193,185,186,198,214,234,257,278,291,287,275,262,251,246,242,240,233,223,228,257,280,299,319,331,329,313,297,279,259,258,265,261,258,253,262,275,280,288,298,321,345,364,380,390,393,383,376,377,366,359,366,362,351,344,344,341,335,334,334,332,328,322,313,309,307,307,309,305,304,308,310,313,320,327,334,334,334,345,341,330,321,309,296,295,293,282,283,282,288,302,316,332,342,351,365,373,374,365,351,334,301,271,252,229,190,172,185,216,246,265,245,249,287,329,349,348,323,299,276,241,223,202,187,170,155,136,136,142,150,160,164,164,165,161,157,153,151,148,155,174,181,177,167,174,188,209,225,217,189,154,136,150,177,206,234,267,295,315,337,351,339,309,283,268,245,223,232,265,289,314,339,370,407,438,470,493,498,475,443,413,396,371,344,312,284,261,234,216,196,168,134,108,93,97,110,135,159,182,199,204,201,217,259,298,332,357,378,401,431,457,461,462,464,460,477,491,514,527,526,537,549,567,566,559,576,597,625,640,650,667,663,664,669,672,691,711,729,750,768,786,809,832,823,795,781,753,722,707,699,682,670,657,645,634,622,608,606,621,637,654,675,698,718,736,746,739,720,706,697,681,667,643,612,591,570,553,545,530,506,475,450,425,398,370,345,320,306,290,273,261,257,256,257,253,240,221,197,185,189,192,188,179,173,172,179,190,208,226,238,250,261,241,211,183,161,144,141,140,140,132,132,135,156,186,200,188,179,161,143,141,139,148,151,146,143,142,142,142,128,129,140,150,152,151,154,158,170,184,189,190,179,167,156,147,144,150,163,177,187,194,186,169,150,148,145,147,161,162,151,139,131,130,127,119,104,103,113,122,113,100,97,99,93,88,84,86,84,81,81,84,83,86,97,112,113,114,124,129,140,168,202,223,246,264,290,313,322,328,309,272,253,268,294,322,341,350,343,313,271,239,211,209,228,245,252,235,205,234,257,262,259,270,266,259,251,240,204,170,192,240,280,313,341,346,357,377,401,415,426,445,463,480,493,494,471,436,397,360,330,314,290,255,232,253,288,312,341,379,407,432,464,492,509,521,532,554,587,611,618,631,648,667,687,709,739,774,811,844,870,887,906,928,944,948,944,929,906,889,873,861,851,851,863,885,902,914,923,928,933,929,926,916,902,893,889,877,858,837,820,804,788,772,754,732,707,674,637,602,562,529,497,458,431,417,412,425,433,423,413,410,426,453,462,459,452,444,447,467,490,508,513,504,495,502,509,496,474,457,451,446,444,455,468,471,465,453,448,445,440,427,407,393,388,386,384,387,386,382,373,365,356,340,321,297,272,252,235,218,197,178,155,131,124,130,136,148,158,169,174,170,178,177,163,153,146,152,161,148,134,121,116,116,133,153,165,176,180,184,177,166,166,164,164
416,384,354,322,303,293,293,319,362,386,373,331,306,306,325,339,358,389,429,470,507,538,572,587,575,559,560,560,561,579,598,622,657,675,670,643,606,564,522,480,450,438,442,456,471,477,476,463,453,430,406,392,381,361,323,278,236,220,212,220,230,239,252,260,269,279,275,257,238,216,197,176,165,171,183,172,148,134,132,140,151,166,177,180,168,168,180,192,201,217,238,258,280,300,307,297,281,257,250,248,235,220,205,184,168,151,131,107,98,103,106,94,77,70,70,70,68,67,69,69,70,70,70,77,99,134,162,177,192,204,219,236,256,287,318,316,304,288,278,277,271,280,299,309,307,298,303,308,311,318,329,344,361,386,412,417,406,388,373,360,344,341,334,324,314,311,301,295,294,294,289,287,282,269,249,222,197,181,185,204,226,250,280,328,371,391,384,353,326,315,301,278,285,316,342,364,381,385,405,431,456,462,440,405,377,371,367,359,367,369,358,337,324,311,305,309,307,292,276,256,239,221,201,179,158,147,152,162,175,174,189,212,232,240,252,267,273,261,238,223,220,211,195,206,227,248,264,261,264,267,248,214,183,187,204,220,237,241,255,254,231,200,174,152,126,106,92,85,79,76,74,75,74,77,83,86,91,115,143,168,181,201,207,211,219,223,230,237,250,262,276,297,333,361,383,406,431,472,512,543,566,570,562,545,530,515,500,488,479,482,503,502,475,478,503,527,549,563,573,581,593,597,590,567,537,508,496,491,485,483,478,473,451,422,396,383,360,334,308,287,267,247,228,207,196,190,190,194,196,182,189,212,214,203,187,172,166,184,212,234,261,284,314,336,347,346,332,307,287,285,272,255,237,217,203,189,172,160,151,136,111,100,101,117,139,146,149,151,144,140,132,111,96,92,95,99,99,96,96,96,96,98,100,101,103,107,108,109,109,110,113,118,120,122,125,127,132,132,121,117,115,120,124,128,131,134,138,141,143,140,136,138,140,145,146,145,140,131,127,126,140,146,148,154,165,187,209,221,232,242,259,264,246,231,218,205,195,186,177,172,162,159,153,156,168,181,196,207,218,230,237,232,225,218,209,194,180,172,175,188,193,193,196,203,215,231,240,234,237,241,239,231,222,215,198,191,193,200,221,249,273,287,290,286,276,270,259,254,250,243,232,229,238,264,295,316,329,334,321,302,282,267,275,286,287,287,279,272,287,305,311,316,326,348,377,399,420,426,412,401,395,384,373,372,366,358,343,340,337,324,316,318,323,329,326,312,300,293,294,311,318,315,306,305,309,318,334,348,359,360,340,323,306,289,274,262,254,252,245,244,248,256,267,285,304,309,313,323,332,330,319,310,297,269,250,229,203,184,171,186,216,247,279,274,257,295,329,361,383,367,342,302,286,274,249,228,200,170,143,131,134,141,147,150,153,155,150,146,141,139,139,158,167,159,155,155,167,175,177,180,178,163,143,137,150,179,213,249,279,285,283,309,332,334,315,292,263,229,207,229,266,300,332,357,386,416,442,477,494,474,447,415,384,360,342,320,295,273,254,230,201,167,127,97,95,112,129,147,168,194,219,232,234,232,230,242,278,313,340,376,415,462,485,494,507,509,514,527,536,549,569,578,590,595,597,594,592,611,630,646,656,676,694,698,700,708,712,723,742,759,776,794,809,819,815,795,769,739,707,675,651,637,629,624,617,602,590,577,565,571,594,621,649,671,689,699,705,707,697,680,664,650,639,627,607,579,557,541,528,516,496,478,456,438,416,387,363,339,327,325,315,297,287,283,287,293,283,261,232,207,205,204,206,210,212,201,189,182,180,181,196,220,234,243,231,205,178,154,140,140,152,158,149,156,159,154,162,175,182,179,165,156,153,149,162,163,160,164,166,167,156,135,135,144,155,161,165,173,179,181,186,193,197,191,178,171,175,163,161,176,196,213,215,205,191,173,163,159,163,179,182,165,155,149,138,138,137,118,110,122,130,117,103,108,111,103,96,94,83,80,82,82,82,84,86,94,109,117,120,129,146,145,152,178,187,199,220,249,276,299,316,318,300,292,300,319,338,352,345,318,285,255,230,226,237,258,278,288,269,227,229,259,287,290,295,302,296,280,261,224,176,175,212,249,281,305,315,332,353,384,412,434,455,476,496,506,501,470,440,402,373,356,334,305,267,244,239,253,281,311,339,367,395,427,447,465,471,487,518,547,560,571,584,598,613,635,669,706,746,783,816,848,877,898,919,928,924,911,887,864,845,826,809,795,803,822,842,861,873,878,887,896,900,905,897,883,875,878,880,878,861,844,830,808,790,761,733,709,682,664,645,607,571,532,489,445,438,419,390,376,376,358,343,363,388,400,398,392,391,415,451,471,493,511,509,500,502,516,504,483,463,453,451,449,448,451,457,463,467,462,448,436,431,425,417,410,400,397,389,385,380,367,354,347,334,324,304,284,265,247,237,222,201,188,166,143,124,116,123,142,156,162,159,163,168,170,160,142,143,160,160,144,123,110,112,125,144,154,160,169,178,175,161,148,143,151
