7,7,8,8,8,7,8,8,7,7,6,8,8,8,8,7,6,6,7,8,8,8,8,7,7,8,7,7,7,7,7,7,9,10,9,8,8,8,7,5,5,6,5,7,8,8,8,8,7,6,6,9,14,9,7,6,8,9,6,6,7,8,6,7,9,8,6,4,6,6,5,5,5,4,5,4,5,9,9,5,3,3,3,4,5,4,3,2,2,2,2,1,3,3,5,4,5,7,10,11,11,12,12,11,9,6,5,6,3,2,3,5,5,5,6,7,8,5,4,4,6,5,5,7,8,7,5,6,6,7,9,7,7,7,6,6,5,6,6,7,7,5,6,6,5,7,10,10,7,7,5,5,6,7,9,8,6,5,6,8,9,11,10,6,4,6,6,6,5,5,5,6,6,6,6,7,6,6,7,6,6,6,7,5,6,5,7,7,6,6,7,7,7,11,13,10,7,5,5,6,7,7,7,5,6,5,5,6,5,4,5,6,7,5,6,6,8,7,5,5,6,6,4,6,6,5,5,6,4,5,7,6,5,6,5,7,9,7,8,7,5,6,6,6,5,6,6,6,6,6,7,6,5,5,4,2,5,4,4,4,5,7,7,6,5,3,4,3,4,4,5,6,5,4,5,6,7,6,5,6,6,5,5,5,4,5,4,4,3,4,3,3,4,4,5,4,4,5,5,4,5,4,4,3,3,5,5,4,3,5,3,3,4,4,4,3,2,2,4,4,3,5,5,3,3,5,3,2,2,2,3,3,3,2,3,7,9,8,8,13,10,4,3,3,4,3,3,5,5,4,5,5,4,5,5,6,6,5,4,6,4,3,4,7,6,4,3,3,2,3,3,3,3,2,1,3,5,6,6,6,6,6,6,6,7,9,7,5,4,5,5,6,6,5,3,4,6,5,3,4,6,5,3,4,4,4,5,3,3,4,3,4,4,4,4,5,5,5,4,4,3,4,4,5,8,7,6,7,8,5,5,7,7,6,8,11,10,8,7,7,6,5,5,4,6,8,8,7,8,9,8,9,8,8,8,9,9,9,10,9,8,9,8,8,9,9,10,10,12,12,11,10,12,10,10,10,11,10,11,10,10,11,11,10,9,9,10,10,12,12,10,12,11,10,10,10,11,12,11,11,11,13,11,13,11,9,8,11,12,12,12,14,14,11,9,11,11,11,10,11,10,12,13,14,16,14,14,12,10,8,8,10,10,11,12,12,12,13,13,15,15,15,14,14,14,15,14,15,15,15,14,15,15,15,15,15,14,14,13,14,13,15,15,16,13,14,15,14,14,15,15,18,15,13,14,13,13,13,13,13,13,16,14,13,12,15,19,21,26,36,50,54,43,41,40,43,55,70,82,92,104,108,110,111,115,113,115,113,111,113,110,107,107,108,107,106,102,99,99,98,96,96,95,95,93,92,91,90,91,90,88,88,87,87,87,88,90,90,92,90,92,94,96,99,97,97,99,107,119,127,135,141,144,148,150,154,155,154,154,156,155,153,157,158,157,156,153,146,138,122,105,84,66,55,60,66,73,81,92,104,120,137,149,156,163,168,173,176,180,183,186,187,189,189,191,193,196,196,195,194,196,197,196,194,195,198,194,188,188,188,189,192,194,195,197,202,202,203,205,206,205,204,203,204,205,205,205,202,201,201,200,199,199,199,197,202,203,204,205,205,204,210,212,213,211,215,218,217,218,217,221,225,227,228,229,232,235,237,239,241,247,253,257,264,268,270,273,277,283,285,285,287,289,289,292,296,294,299,304,308,311,317,320,323,329,332,333,334,330,330,338,339,340,340,341,348,354,357,362,364,364,365,371,375,377,381,385,391,398,400,404,402,400,398,394,392,393,394,393,393,393,395,398,398,400,397,401,402,397,392,386,382,377,377,375,371,372,375,374,373,371,363,367,373,376,377,379,376,375,372,375,369,371,369,374,375,376,377,375,378,375,374,369,368,362,359,359,354,346,343,338,332,334,347,353,354,354,359,363,364,364,362,362,364,363,359,364,371,377,382,388,397,406,410,411,412,413,414,414,417,420,422,426,428,433,435,435,433,437,444,448,450,452,459,466,473,481,478,469,462,454,445,430,414,392,375,365,366,375,380,373,360,342,325,303,286,274,265,266,261,252,243,237,245,262,284,303,315,323,330,340,355,366,373,374,375,369,354,335,312,293,270,247,227,209,189,170,148,134,118,107,102,95,91,90,89,90,91,91,99,104,111,114,125,134,134,122,109,111,132,161,181,195,208,222,238,248,251,253,250,240,231,229,233,243,253,249,236,221,209,200,194,197,188,189,205,212,211,209,206,199,194,192,192,187,186,186,185,186,189,192,195,198,203,208,210,211,213,215,218,222,227,233,241,253,269,294,315,330,343,350,347,337,321,303,292,309,339,366,369,369,379,372,367
8,7,8,8,8,8,8,8,7,7,6,8,8,8,7,7,6,7,7,7,8,7,6,7,7,7,8,8,8,7,6,7,7,8,7,7,7,7,7,6,5,5,7,7,7,8,8,7,7,7,5,7,9,7,8,8,7,9,8,8,9,6,4,6,6,7,6,6,5,4,5,5,5,3,3,3,3,5,8,7,5,5,5,5,4,4,4,4,2,2,1,2,2,2,4,8,11,11,10,10,10,11,11,9,6,6,5,5,3,3,3,5,6,5,6,6,7,7,7,7,5,7,6,7,7,7,6,6,6,6,7,6,7,7,5,6,7,7,7,6,5,7,8,8,6,6,7,7,8,8,5,6,8,6,6,5,7,7,6,7,10,11,8,5,5,7,6,6,5,5,6,6,6,6,8,7,6,6,7,5,5,7,8,7,7,7,7,6,5,7,6,5,6,10,12,14,10,6,7,7,7,7,8,7,6,5,5,6,6,5,5,5,5,5,6,6,7,7,5,5,6,6,5,6,7,7,6,6,5,4,5,6,7,8,7,8,9,6,6,7,6,7,7,6,5,5,7,6,5,6,8,6,6,5,3,3,4,4,5,4,5,8,7,5,5,4,5,5,6,5,5,5,3,2,5,6,4,3,4,4,5,7,6,6,6,6,5,4,5,5,5,5,4,5,5,5,5,4,4,5,3,3,4,4,4,5,4,5,5,6,4,4,4,3,4,4,4,2,6,4,2,5,5,2,2,3,3,4,4,4,4,2,3,3,3,7,8,7,5,8,5,2,4,4,5,5,5,5,4,4,3,5,5,5,6,6,5,5,5,6,5,3,3,5,3,3,5,5,4,3,5,3,3,2,2,3,5,6,7,7,6,6,6,6,7,9,6,5,5,5,6,5,5,3,4,5,6,5,2,3,4,3,3,4,5,4,4,5,6,5,5,5,4,4,5,4,4,4,4,4,3,6,4,5,6,5,5,4,4,4,4,4,6,5,9,14,13,11,8,5,6,6,5,5,5,7,9,7,8,9,8,9,10,9,9,8,9,9,10,10,8,10,9,8,9,10,10,10,9,9,10,11,10,9,10,11,10,10,12,11,11,11,11,10,10,10,10,10,11,11,11,9,9,11,11,9,11,12,12,12,13,13,10,10,10,12,10,10,11,11,10,10,12,12,11,12,12,9,10,12,14,12,11,11,13,14,15,15,15,14,11,11,10,9,10,12,14,13,12,14,15,15,14,14,15,15,16,16,16,15,15,16,16,16,15,14,13,15,14,14,16,16,16,17,13,14,14,15,13,14,13,15,12,12,14,12,10,12,14,16,16,19,16,14,18,27,38,41,36,46,60,62,51,49,56,67,80,93,100,103,96,98,106,107,110,111,109,109,107,110,109,104,107,107,106,106,101,98,99,97,97,97,95,96,94,92,94,94,91,90,91,92,92,93,91,90,90,90,90,92,94,97,98,99,100,101,100,105,119,131,138,142,144,144,145,144,151,152,152,154,153,153,154,153,153,152,151,146,138,127,111,91,73,61,62,67,72,77,90,107,129,145,154,157,161,166,172,175,177,177,178,182,184,185,187,190,191,188,184,188,191,192,192,192,190,190,187,184,187,189,189,188,192,194,197,198,198,202,204,206,205,206,204,204,204,205,204,201,200,200,199,197,197,197,198,202,205,204,202,202,205,208,212,212,211,215,215,215,215,219,225,227,227,229,230,232,233,235,234,241,247,252,255,259,264,267,269,271,275,279,281,284,285,284,285,289,292,297,304,308,311,316,324,324,323,325,325,326,323,327,331,335,339,339,338,344,350,355,357,358,355,359,365,368,370,372,377,382,388,391,393,394,393,391,392,390,388,391,395,395,392,394,390,393,392,390,389,391,388,382,380,380,379,376,373,370,371,374,374,373,371,368,366,374,378,381,380,379,381,381,380,376,377,380,379,378,378,376,375,370,370,368,366,363,363,360,356,352,346,339,334,335,340,353,360,364,364,366,366,367,369,370,369,372,375,376,383,385,388,396,402,409,413,415,420,422,424,424,426,428,431,435,438,441,445,448,449,447,452,465,469,473,475,477,488,502,505,498,488,480,472,464,449,432,414,399,393,395,403,406,396,377,358,337,313,295,284,280,285,283,273,257,236,226,235,260,282,300,313,330,347,359,372,372,365,357,345,327,308,282,258,235,209,180,155,131,116,100,93,87,88,88,89,91,92,93,94,94,111,127,130,136,135,138,147,147,135,120,108,112,137,161,189,215,228,236,244,254,260,261,258,253,248,242,241,237,230,220,208,203,216,225,224,211,196,199,211,215,217,216,209,204,206,204,202,195,192,198,202,206,211,215,221,227,229,227,225,227,229,236,238,240,243,252,268,286,308,330,357,382,394,389,371,349,334,333,342,356,354,353,354,357,356,359
7,9,8,8,9,9,7,6,6,7,7,7,8,9,8,8,8,6,6,7,8,8,7,7,6,6,7,7,7,7,8,8,6,9,7,7,8,6,6,7,8,9,10,7,7,9,10,8,8,8,8,9,8,7,8,7,8,6,6,9,10,10,9,8,6,6,8,7,5,7,8,6,4,3,4,4,3,5,5,7,7,6,5,4,7,8,7,7,5,2,3,4,2,4,4,8,9,9,9,10,11,11,9,5,5,6,6,6,4,3,4,4,5,6,7,7,7,8,8,7,5,6,7,8,7,6,6,8,7,6,5,6,7,6,6,8,9,6,5,8,8,7,7,6,6,5,5,6,6,6,5,7,7,7,8,8,9,8,6,6,7,8,6,5,5,5,4,7,6,6,6,5,6,7,7,7,6,6,6,7,7,6,6,6,6,5,6,7,9,9,8,6,6,9,11,13,13,9,7,6,7,6,7,7,5,6,6,7,6,6,7,6,5,5,6,7,6,7,6,6,5,5,5,5,7,7,7,6,5,8,9,8,7,8,8,7,10,10,8,6,8,9,11,8,4,5,5,5,6,5,6,6,7,8,6,4,4,4,5,5,5,5,5,4,4,6,4,5,5,5,6,6,4,4,4,5,6,5,6,4,4,6,5,5,4,5,3,4,5,4,4,5,5,4,5,6,5,4,3,3,3,4,5,4,4,5,5,3,5,5,4,4,4,3,5,5,6,5,6,6,5,4,4,4,3,2,4,5,4,5,4,3,3,4,4,5,6,6,5,5,4,3,4,5,4,6,6,4,4,5,5,5,6,6,4,4,4,4,4,6,5,4,3,2,4,3,3,3,5,4,4,4,2,3,3,5,6,7,7,7,6,6,6,7,6,6,4,5,5,6,7,6,6,5,5,4,4,3,6,6,5,4,5,5,6,5,5,6,6,4,3,4,4,5,4,4,5,5,5,5,6,9,7,5,5,5,5,7,7,5,3,3,4,5,9,12,11,8,6,7,6,5,6,8,8,9,9,8,8,9,10,9,9,8,8,8,8,10,8,8,8,9,9,9,9,9,10,9,9,10,10,9,8,8,10,10,10,10,12,12,12,12,11,10,12,12,11,11,11,10,10,10,10,12,12,13,16,14,13,12,12,10,9,8,11,13,11,10,11,12,10,11,11,11,10,10,10,9,10,12,15,12,12,14,13,13,16,15,15,14,15,14,12,12,11,10,11,12,13,13,12,13,14,15,15,15,15,16,15,14,15,17,17,17,17,17,16,15,14,14,16,15,16,18,16,16,15,15,18,16,17,17,17,15,16,16,17,22,29,28,20,15,13,16,27,45,57,60,54,53,60,68,73,78,84,94,102,104,106,105,101,101,103,109,112,111,109,105,106,109,108,105,106,103,102,102,101,101,98,98,99,96,96,96,93,89,92,90,92,92,91,90,93,93,92,89,93,98,96,95,96,98,98,100,104,104,106,112,122,131,135,137,138,139,136,138,147,150,151,151,152,152,150,150,151,151,145,138,134,125,110,89,71,58,59,64,68,74,88,108,125,141,152,156,160,161,164,168,170,175,176,177,179,179,178,177,174,176,177,176,174,177,179,182,182,185,185,185,184,188,187,187,191,195,197,197,197,201,200,203,201,200,202,203,203,202,199,198,198,199,204,202,199,198,199,201,201,196,198,204,208,207,209,209,207,211,214,215,218,222,222,226,229,230,231,231,233,234,233,240,250,255,257,260,264,269,269,273,278,282,284,284,285,287,290,293,296,300,306,312,318,325,331,332,330,331,332,331,330,334,335,337,335,338,340,346,349,354,358,361,360,362,363,367,371,373,373,375,381,386,386,388,388,389,386,385,383,380,384,383,382,382,380,379,379,378,375,374,374,376,380,387,389,384,380,378,374,374,375,373,372,377,378,382,382,381,383,388,391,392,387,384,382,381,381,381,377,374,371,367,366,364,365,364,365,363,356,349,343,334,332,343,355,361,368,370,368,369,371,372,373,376,374,375,382,392,394,393,401,411,419,421,420,422,427,430,433,434,439,440,442,446,451,454,453,454,458,460,470,485,493,496,494,494,501,512,515,509,498,491,484,472,460,446,435,424,421,424,419,410,395,378,359,340,322,303,291,293,298,296,285,269,249,225,209,222,247,275,299,319,328,339,349,342,336,327,316,302,284,257,230,194,160,129,105,89,87,88,89,89,91,97,103,104,107,113,112,115,134,144,144,150,151,153,154,150,144,133,118,111,123,147,175,206,221,216,224,228,233,229,229,235,239,244,249,247,239,229,217,211,220,230,230,222,210,209,219,220,219,222,221,221,222,221,214,207,198,204,222,240,247,249,255,256,251,246,244,249,252,257,266,267,266,270,290,308,331,361,389,404,397,388,378,367,355,349,347,341,338,337,340,344,347,348
9,9,8,8,7,7,7,6,5,7,9,7,8,7,7,8,7,7,8,7,8,8,7,8,8,8,7,6,7,6,6,7,8,9,9,8,8,8,7,6,8,9,10,9,10,10,9,9,9,9,7,7,6,7,7,6,7,8,8,11,14,13,10,7,6,6,7,7,5,4,6,5,7,7,5,5,5,6,6,7,7,6,5,5,7,6,5,3,5,5,4,4,3,4,3,6,8,7,6,6,9,9,8,6,3,6,6,5,4,5,4,5,6,5,6,7,6,6,6,7,5,7,7,7,9,7,7,8,5,5,6,6,6,6,6,6,5,5,5,7,9,7,7,4,5,5,5,7,9,7,6,7,7,6,7,7,8,7,6,6,6,5,6,6,6,6,5,6,6,6,6,5,6,6,5,5,5,6,8,7,6,6,6,7,7,8,6,6,8,9,6,6,8,11,12,14,14,11,9,8,8,7,7,5,3,6,6,6,7,7,7,6,6,8,8,8,7,6,5,5,6,5,5,6,6,6,8,7,5,9,12,10,7,7,7,7,12,10,6,6,7,8,11,7,6,7,6,6,7,8,8,6,6,5,5,5,5,7,5,6,7,5,4,3,3,4,1,5,6,5,5,6,6,5,6,6,6,6,5,4,3,4,6,7,6,6,4,5,6,5,4,5,5,5,4,4,3,4,5,6,5,6,6,5,6,5,4,4,5,5,5,3,4,4,5,4,6,7,5,5,4,3,3,6,6,3,3,4,5,4,3,4,5,4,4,4,4,4,4,4,5,4,4,4,6,7,6,4,4,6,5,4,5,5,4,5,6,5,5,5,5,5,3,2,4,3,2,4,4,4,4,2,3,4,5,5,7,7,8,7,6,5,5,6,6,5,5,5,6,6,7,5,3,4,3,4,3,3,4,5,4,3,5,5,6,7,6,5,4,3,3,5,5,4,4,4,5,5,5,5,6,6,7,4,4,5,6,6,4,4,4,6,6,7,6,6,7,7,6,7,6,8,10,9,9,10,11,10,10,9,9,10,8,7,8,8,8,9,9,8,10,11,10,11,9,10,10,10,11,11,10,9,9,10,11,11,12,11,11,11,10,9,11,12,11,11,11,11,12,12,10,12,13,13,13,12,13,14,14,13,14,10,10,13,14,13,12,10,11,12,12,11,12,12,10,8,10,13,12,10,11,13,14,15,12,12,13,11,14,15,14,14,14,14,12,11,11,12,13,12,14,14,14,17,17,16,14,16,15,16,16,17,16,16,16,18,17,16,16,16,16,18,17,18,18,18,21,23,28,30,33,34,30,25,25,27,31,36,41,37,26,16,15,23,37,49,63,70,69,65,68,73,81,88,95,100,102,104,107,108,106,107,107,107,108,107,108,104,106,108,108,107,103,102,101,99,98,96,93,95,97,95,93,93,92,91,92,90,90,90,84,90,94,92,94,93,93,91,92,95,97,97,98,101,106,106,110,115,121,124,127,131,133,136,140,144,146,148,150,151,153,153,151,152,149,143,136,132,133,120,101,78,63,56,57,62,69,76,87,101,116,129,142,150,156,159,160,162,166,168,169,172,175,174,171,166,165,167,167,172,173,174,179,181,181,184,184,185,188,186,184,189,192,193,195,195,194,191,194,201,202,201,201,198,196,200,202,202,202,201,202,203,206,205,203,204,201,199,202,205,206,206,209,211,210,213,216,218,219,220,223,225,229,233,234,233,239,244,247,254,258,261,261,265,268,272,273,275,279,289,291,291,290,290,292,294,299,302,309,312,324,330,333,338,337,336,335,332,335,337,337,336,333,339,346,350,354,360,361,364,366,369,371,371,373,375,374,377,382,382,385,387,388,387,387,387,382,377,381,385,386,386,387,384,383,378,375,375,380,382,390,398,402,397,391,385,380,382,382,381,382,382,383,384,385,385,392,395,399,399,392,391,391,390,389,386,383,379,375,371,368,363,365,366,363,359,351,343,341,342,342,350,363,368,373,375,373,375,374,377,378,378,380,386,398,405,405,408,415,419,421,428,434,434,436,444,447,447,446,445,449,456,460,464,466,472,480,486,496,512,518,518,514,509,505,508,508,501,489,479,472,463,452,443,442,437,432,422,409,393,375,362,342,326,305,290,283,273,275,268,257,243,229,212,193,197,220,244,266,279,293,301,310,309,304,304,296,281,259,227,191,155,120,96,87,86,86,88,91,94,103,118,129,127,129,137,130,134,151,159,163,168,176,175,173,168,159,148,133,117,115,139,170,189,192,191,196,200,199,195,200,207,214,223,229,230,236,235,230,222,219,223,232,235,228,220,232,239,233,238,240,239,240,239,242,234,220,209,220,246,264,276,285,290,289,281,275,282,287,292,302,304,302,310,324,343,368,384,384,381,375,364,350,341,335,325,319,324,325,323,325,333,337,333
8,8,8,8,7,7,8,8,7,7,7,8,8,7,9,9,9,9,8,8,8,9,9,8,7,6,7,7,7,8,7,7,7,6,8,8,8,7,7,6,6,7,8,10,10,8,9,9,9,8,8,7,8,8,7,6,6,6,9,9,9,9,7,8,5,6,7,7,5,6,6,5,5,6,5,5,5,5,6,8,7,6,6,8,8,6,4,2,6,8,7,4,3,3,4,4,5,5,3,4,5,7,7,6,5,5,5,6,5,5,6,5,6,3,5,8,8,6,6,8,7,9,9,6,7,7,6,6,7,8,6,6,6,6,7,7,6,7,7,6,7,7,9,8,6,4,4,6,8,7,6,6,7,5,7,7,7,6,6,9,9,6,6,6,6,5,6,6,7,7,8,6,5,6,6,6,4,4,7,6,5,6,8,6,5,7,7,7,8,9,7,9,9,11,14,14,13,13,10,8,7,6,7,8,5,6,8,8,7,7,8,6,7,9,8,9,9,8,6,6,7,6,6,6,6,7,7,6,6,5,7,8,8,7,7,10,11,8,7,5,6,7,7,5,5,6,5,4,5,5,5,5,6,6,5,6,8,8,6,5,6,6,5,5,4,3,2,3,4,6,6,5,7,8,7,7,5,6,5,5,5,5,5,6,6,5,8,8,8,5,5,4,4,4,4,5,6,5,6,5,6,6,6,5,6,5,5,3,4,6,6,5,5,5,5,5,6,6,6,4,3,4,4,6,4,4,4,5,3,4,3,4,5,4,5,4,6,5,4,5,6,5,5,5,5,5,4,5,5,7,5,5,5,5,5,5,5,6,6,6,5,4,2,4,4,3,5,6,6,6,4,3,2,3,4,5,6,7,7,7,6,6,6,7,5,4,5,7,8,6,6,6,4,6,5,3,4,3,4,4,5,6,6,4,3,4,2,5,7,4,3,5,5,5,5,5,5,5,6,6,6,5,5,4,4,6,7,7,6,5,4,6,7,8,7,6,6,7,7,8,8,9,9,8,9,10,11,11,12,11,11,11,10,8,8,10,11,10,9,9,10,11,11,10,9,8,9,9,9,10,10,10,10,10,10,10,11,11,12,12,12,9,9,10,11,12,13,12,11,13,13,12,13,13,14,15,15,14,14,13,11,11,12,17,18,15,12,11,10,11,13,11,9,9,10,9,12,12,11,11,9,10,14,12,13,15,13,10,12,14,16,15,15,17,14,13,14,12,10,12,14,15,16,16,17,15,15,16,14,16,16,15,15,15,15,14,16,14,12,14,15,18,19,17,18,23,29,36,38,37,39,39,36,33,35,37,37,37,38,30,22,20,23,28,32,38,53,63,67,71,74,81,85,92,97,99,100,102,104,108,109,111,109,107,104,101,104,105,105,104,107,106,102,98,99,99,99,94,95,95,92,93,93,91,91,94,94,92,91,91,91,91,92,92,94,90,86,89,91,93,96,97,99,101,106,107,111,116,119,119,123,131,135,138,140,144,145,146,148,148,152,154,152,151,148,143,137,133,128,113,94,74,55,51,55,61,71,82,93,105,121,132,140,148,154,157,161,163,166,164,164,167,165,165,161,166,168,169,170,174,175,178,178,180,181,181,184,186,187,189,188,190,192,193,192,192,193,197,200,203,201,201,201,202,202,202,205,205,204,204,204,203,205,208,207,207,206,203,205,208,207,208,211,213,215,216,215,218,217,218,222,226,227,235,239,242,250,254,263,266,270,270,272,274,275,276,275,280,284,291,294,294,294,293,295,297,299,304,311,316,327,338,347,350,346,342,340,339,337,340,342,347,347,352,358,361,364,365,366,371,371,372,372,371,374,375,374,375,381,383,386,388,388,388,387,385,384,383,383,390,394,394,394,394,391,386,388,390,389,388,390,398,403,401,399,398,396,401,400,395,394,393,389,390,390,387,391,396,401,402,400,396,396,397,396,393,388,385,378,371,365,360,363,366,360,354,348,347,354,358,361,367,370,378,383,381,383,383,384,381,385,386,389,397,411,417,417,419,426,432,436,441,451,453,453,455,456,457,456,457,461,470,483,488,490,496,506,515,518,527,531,527,519,505,494,489,481,470,466,457,445,439,430,422,417,407,394,382,370,359,344,329,315,299,277,260,248,239,231,219,214,205,199,188,175,178,191,213,229,246,264,272,279,280,274,266,256,239,212,187,151,114,91,85,85,89,89,92,97,103,104,119,137,141,147,151,155,150,151,163,178,186,190,192,186,181,171,160,142,125,115,136,151,156,160,168,167,162,168,171,172,173,183,193,196,206,213,219,227,230,228,233,237,240,242,237,239,249,255,260,268,270,269,271,267,255,236,223,215,229,255,274,297,323,330,322,318,326,333,338,346,346,347,352,365,378,384,371,358,355,358,354,345,333,319,310,311,315,316,315,317,321,328,327
9,8,7,9,9,10,9,8,7,8,9,8,7,8,8,8,7,9,8,7,9,9,8,8,7,6,8,7,9,10,9,9,8,6,7,8,8,7,8,11,11,7,6,7,6,6,8,8,6,6,6,7,7,8,9,9,6,7,8,5,6,6,7,9,7,7,5,6,6,6,6,6,6,5,5,6,6,7,7,7,4,3,5,7,6,4,4,4,5,6,7,4,4,4,4,4,4,3,2,5,7,7,6,5,6,6,6,6,6,5,5,2,3,3,5,6,7,6,8,9,8,7,8,7,6,7,6,6,9,8,7,5,7,6,6,6,8,8,7,7,7,7,9,9,6,5,4,7,7,6,6,9,8,6,6,8,9,7,7,8,8,7,7,6,5,6,7,7,7,7,7,7,6,6,5,5,5,6,8,7,7,8,8,7,7,8,8,7,7,7,9,9,10,9,10,11,12,12,11,8,8,8,6,6,6,8,8,6,7,7,6,6,7,8,8,8,8,7,6,6,7,6,6,4,5,6,5,6,7,7,6,8,9,6,6,6,5,6,8,8,7,7,6,5,6,8,8,6,6,8,7,6,7,9,9,6,9,10,6,4,5,4,4,6,5,4,5,5,4,6,6,6,6,5,6,5,5,5,4,5,8,5,5,5,4,4,4,5,6,5,6,4,3,4,4,4,7,6,5,6,5,4,5,5,6,4,6,5,7,8,7,4,5,6,7,6,5,4,3,4,4,4,4,4,4,4,4,4,4,5,5,5,5,4,6,5,6,6,5,4,4,4,6,5,5,6,6,6,6,6,4,6,6,5,6,6,6,5,6,8,7,6,4,4,5,4,4,5,4,4,5,5,4,4,4,5,7,7,7,7,7,7,8,7,4,4,8,6,5,5,6,7,6,4,4,4,5,5,5,6,6,9,11,6,4,6,3,5,7,7,5,3,4,4,4,7,7,7,6,6,6,5,5,6,5,6,8,7,5,6,5,6,6,7,8,8,9,8,6,8,9,10,9,8,8,9,10,12,11,11,12,11,10,9,9,10,10,10,11,11,10,9,10,10,10,10,8,9,11,11,11,10,10,11,12,10,10,12,11,13,12,10,9,11,10,11,12,12,11,12,13,12,11,12,12,17,16,13,14,13,9,9,14,17,19,18,14,13,11,11,11,9,7,10,11,11,12,11,11,11,12,12,11,13,14,14,16,15,14,11,13,15,15,16,14,15,16,14,10,11,13,13,14,15,16,19,18,16,16,17,17,14,16,16,15,14,14,15,16,16,16,17,18,18,20,19,18,18,20,22,25,29,31,30,30,31,28,27,21,20,23,27,33,36,40,46,53,61,64,69,76,82,90,94,98,101,102,103,104,104,105,108,108,107,108,105,104,106,109,106,102,104,101,99,98,99,99,98,98,97,94,91,90,92,95,92,91,95,95,96,94,89,87,87,91,90,92,96,98,99,98,98,100,102,106,107,110,113,112,120,127,132,133,136,138,139,140,141,142,142,145,147,142,137,134,132,130,122,114,98,77,63,52,50,58,68,89,105,113,119,130,141,147,150,155,157,160,165,166,164,160,155,158,160,162,167,170,170,172,176,180,179,179,182,185,185,184,188,189,189,190,191,188,192,198,199,200,204,202,200,200,198,198,193,196,199,201,203,200,203,205,205,204,203,199,204,205,206,209,209,207,210,213,213,215,214,217,217,218,223,228,227,227,235,241,249,256,267,276,280,281,280,281,280,281,281,281,283,284,290,293,294,296,296,295,296,298,299,305,320,335,354,363,362,355,348,342,343,344,347,350,354,358,364,373,373,374,372,372,377,377,378,377,374,374,378,380,381,383,385,387,387,386,387,387,388,390,392,392,396,402,409,413,415,412,409,409,407,404,400,401,406,408,408,411,417,423,424,422,418,412,404,402,400,396,395,400,403,401,400,405,401,400,400,399,399,396,388,380,374,366,362,365,361,356,348,346,356,365,369,378,387,394,397,395,396,396,396,393,393,398,397,395,405,417,422,424,427,438,443,452,463,473,473,470,467,463,464,467,474,480,492,507,511,514,520,526,529,527,526,523,515,506,490,481,471,461,450,443,434,424,413,402,394,384,373,357,344,330,316,307,295,279,264,245,225,213,205,197,188,181,177,172,163,154,175,198,189,190,212,230,237,231,229,225,215,201,187,163,141,110,89,86,86,89,93,96,103,115,123,115,114,128,137,151,167,176,173,174,176,182,185,182,181,177,179,171,158,147,129,116,122,131,132,136,139,147,152,158,163,167,166,175,184,193,201,210,215,227,237,240,240,248,258,264,267,270,280,294,298,304,307,306,304,292,278,258,242,228,228,250,280,316,350,360,359,357,369,377,375,378,383,380,376,371,366,359,352,338,334,339,335,333,324,314,306,300,302,308,309,316,316,314,310
9,8,6,7,9,10,9,9,10,9,10,9,8,9,9,9,8,8,8,9,8,8,9,6,7,9,9,9,10,13,10,8,6,6,7,8,7,7,9,11,9,6,6,7,7,7,7,7,7,8,9,11,9,10,10,9,8,7,5,4,5,6,5,7,8,8,8,10,9,7,7,7,7,7,6,5,5,5,5,6,5,4,4,6,4,5,5,4,4,4,4,4,3,5,7,10,6,3,2,5,6,7,7,5,4,6,7,6,6,6,6,6,5,5,7,7,7,7,9,8,9,8,6,6,8,8,7,7,6,6,7,6,6,6,6,8,8,9,9,9,10,9,9,12,8,6,6,6,6,7,7,10,9,7,6,7,7,8,8,7,7,7,5,4,6,6,6,7,7,6,7,7,7,8,7,4,5,6,5,6,8,8,8,8,8,7,7,7,7,8,7,7,8,7,8,9,8,7,9,8,6,8,7,6,5,5,6,6,6,6,6,6,7,8,8,7,6,7,6,6,8,8,6,6,5,7,7,6,7,9,8,6,7,7,7,7,7,7,7,7,6,8,7,6,7,7,8,6,6,7,7,6,7,8,7,7,9,9,5,4,5,5,4,3,3,4,6,7,4,5,6,5,5,7,6,6,6,6,6,6,6,5,4,6,6,5,4,6,4,5,7,7,6,6,4,6,6,5,5,6,5,4,4,5,4,4,5,6,6,6,6,6,7,5,6,6,5,6,4,3,4,4,4,4,4,4,4,4,5,6,4,5,5,6,6,7,6,5,4,5,5,5,5,6,4,5,6,6,7,6,5,5,4,4,4,6,7,7,6,6,6,6,4,4,5,3,5,5,5,4,4,5,6,4,5,5,7,8,8,7,7,7,8,8,6,7,7,7,6,6,6,4,4,4,4,4,5,6,6,5,7,9,9,6,6,6,5,5,6,7,4,4,5,6,6,6,8,9,6,7,7,6,6,5,5,5,7,7,6,6,6,6,5,6,7,7,7,8,7,6,7,7,7,9,9,10,10,9,9,9,9,9,8,9,9,9,10,11,10,9,9,10,10,8,9,10,7,9,11,10,10,13,11,10,10,10,11,10,11,11,10,10,10,11,11,12,11,12,13,13,14,13,13,12,13,14,13,14,14,13,10,12,14,12,14,14,12,11,9,11,11,10,9,10,12,12,12,11,12,12,12,11,11,14,14,14,12,13,13,11,14,14,14,15,14,15,14,14,12,10,10,13,14,15,15,17,17,18,20,16,17,15,16,16,15,19,17,15,15,17,17,16,17,16,16,16,15,14,15,16,17,16,15,18,21,18,20,20,15,16,21,30,36,42,45,53,66,72,76,76,80,86,90,96,99,103,103,104,104,104,105,107,105,104,105,108,107,105,107,101,95,99,99,100,96,95,93,94,98,96,94,93,92,95,96,93,95,99,95,94,92,92,89,86,91,95,100,99,98,99,100,101,99,102,107,109,111,114,116,119,125,129,132,133,133,134,133,133,135,136,135,133,129,129,126,122,117,112,99,82,64,52,48,50,65,86,101,119,127,133,138,142,147,150,155,156,157,156,153,156,155,157,160,161,165,168,170,172,174,176,178,179,178,180,186,185,186,187,185,189,190,193,193,196,199,202,203,203,203,203,203,200,198,198,199,199,198,199,194,199,202,203,200,198,198,203,203,202,203,206,209,210,212,212,213,215,216,218,224,230,233,234,234,239,246,251,260,271,278,281,283,283,285,286,285,285,285,285,285,289,291,293,297,297,297,298,300,300,303,321,340,358,362,360,354,351,349,349,349,352,356,362,366,374,381,384,381,381,382,385,382,383,381,381,383,381,387,394,393,393,392,391,391,390,389,390,392,398,405,411,420,434,442,446,449,445,439,435,424,417,416,421,421,419,426,436,444,445,451,445,438,427,420,412,405,405,408,412,411,410,415,414,411,410,411,408,403,393,385,375,365,361,358,350,350,355,363,373,379,393,398,408,419,420,419,419,419,417,413,413,415,412,408,414,427,432,439,446,455,463,470,480,489,488,486,479,475,473,475,491,501,513,526,531,532,530,527,521,509,498,489,485,478,469,457,446,439,429,420,409,395,382,371,357,344,334,319,305,292,277,263,252,238,222,203,186,168,163,160,155,148,142,139,135,146,166,181,175,164,174,191,184,175,166,162,153,140,128,113,99,88,83,85,87,92,103,113,127,132,134,127,119,127,149,163,177,188,193,194,193,191,185,176,167,163,162,158,152,138,123,119,122,123,126,135,145,149,157,164,174,179,181,191,201,207,216,226,233,241,249,251,251,259,276,292,304,314,321,331,340,345,349,347,339,326,309,290,271,244,237,257,287,314,333,342,354,359,365,370,372,368,364,366,364,354,351,347,343,334,325,321,320,320,317,311,306,296,288,290,289,296,300,297,294
8,8,9,11,10,8,8,9,8,8,9,9,8,8,9,10,10,9,9,10,9,8,8,8,8,7,8,8,11,14,10,9,7,8,9,8,6,7,7,7,8,7,6,6,7,7,8,8,8,8,10,9,9,9,10,8,9,8,8,7,6,6,5,6,7,7,8,12,11,7,7,7,6,6,6,5,5,5,4,3,4,5,5,3,5,7,6,4,2,4,4,4,4,5,5,4,4,4,4,5,4,4,6,5,5,8,9,8,7,8,8,6,4,5,6,6,6,7,8,8,8,8,8,7,7,8,6,6,8,7,6,6,7,7,7,8,8,6,7,6,9,8,8,10,10,6,6,7,8,6,8,9,10,9,8,8,8,8,7,6,5,6,6,5,7,7,8,6,8,9,8,7,7,7,8,8,7,9,7,5,7,7,7,8,8,7,7,6,6,8,8,8,8,8,8,8,9,11,12,12,10,7,8,7,7,5,5,6,6,8,6,6,6,7,7,6,7,7,5,6,7,7,7,7,8,8,6,5,6,10,12,12,11,10,7,6,7,7,7,6,6,8,7,7,7,6,6,6,7,9,8,8,9,7,8,8,7,6,6,4,5,7,8,5,4,4,4,4,5,6,7,6,6,5,5,5,6,6,7,6,6,6,3,5,4,5,4,4,4,4,6,7,7,8,5,4,4,5,5,5,5,6,6,5,5,5,5,5,4,7,8,7,5,5,5,4,6,6,5,5,5,4,4,5,6,5,3,4,4,4,5,5,6,6,5,5,5,6,5,6,6,6,7,8,4,5,6,5,5,4,5,5,4,4,5,5,6,7,7,6,5,6,7,7,5,4,4,5,5,4,4,7,7,5,4,7,7,6,6,6,6,6,8,7,6,7,7,6,6,6,6,5,4,5,5,5,6,6,5,6,7,6,6,7,7,7,7,7,6,7,6,5,5,6,7,7,8,8,7,9,9,7,5,5,5,5,3,6,7,6,5,5,5,6,8,6,7,8,8,9,8,7,8,11,10,9,9,9,8,8,8,8,8,9,8,9,11,11,12,13,12,10,10,10,11,10,8,9,10,11,10,11,11,10,11,11,10,10,12,11,11,11,11,12,13,13,13,13,13,12,12,13,13,13,13,13,12,15,14,12,10,13,14,11,11,10,10,12,11,11,11,11,10,9,10,13,13,11,11,12,10,11,13,12,13,12,10,12,12,12,14,14,15,14,15,14,13,16,14,12,10,11,15,16,15,16,16,16,18,16,16,17,18,16,15,15,17,15,18,19,16,17,17,17,18,20,17,14,15,17,15,16,16,14,16,17,16,15,18,19,19,28,41,48,54,61,73,81,84,86,90,92,94,95,99,99,99,100,100,100,104,106,105,105,105,105,106,103,100,95,95,96,96,96,94,95,96,95,90,92,95,93,96,98,97,97,100,101,99,96,95,97,96,95,95,97,98,97,97,101,103,102,101,100,104,108,107,110,114,119,121,123,126,126,127,125,126,124,128,127,127,123,121,119,118,117,110,102,91,78,66,49,44,49,64,88,106,120,126,133,137,143,147,148,151,149,145,145,145,149,153,156,159,163,166,168,171,171,172,176,177,178,176,181,186,187,188,189,187,190,194,197,200,200,201,203,201,200,199,200,199,196,197,200,200,198,196,200,203,202,200,197,195,201,202,204,201,202,204,200,203,210,210,211,215,219,220,222,229,237,240,243,247,250,253,252,257,269,274,278,286,289,293,294,291,290,291,293,291,293,296,298,302,302,299,299,304,309,316,328,343,355,359,357,355,353,354,358,358,355,357,364,371,377,384,387,389,393,396,396,392,390,387,389,392,393,399,403,405,405,404,401,400,397,396,399,405,411,415,426,443,463,479,488,489,482,474,462,445,434,438,443,440,439,451,466,476,483,481,469,459,450,435,426,425,429,432,432,429,427,428,429,425,422,423,420,409,397,386,375,366,362,355,354,360,370,390,407,414,423,428,434,443,448,450,451,453,452,445,438,434,431,425,434,446,452,457,469,481,489,495,501,504,506,506,500,497,495,496,502,510,513,517,516,508,499,496,488,479,472,465,458,451,443,429,418,410,397,386,371,360,347,333,316,303,292,282,270,259,243,230,214,197,176,162,147,134,127,128,131,128,125,122,122,129,137,136,133,132,144,149,139,123,113,110,102,93,87,86,86,84,87,89,93,109,129,134,140,149,153,147,133,127,136,157,183,194,195,197,191,182,180,173,164,158,150,138,130,125,121,119,122,127,130,134,138,145,152,161,173,182,193,205,217,228,237,249,262,270,276,275,274,281,299,321,342,358,367,379,383,387,388,384,369,346,320,295,275,250,251,279,298,303,314,325,335,342,348,352,354,355,353,353,352,342,338,335,331,322,315,310,306,303,304,302,298,291,281,275,273,277,279,279,281
10,9,7,8,8,8,9,9,8,9,8,6,8,9,10,9,8,7,9,9,10,10,9,8,7,7,7,8,11,12,10,14,11,10,8,8,7,6,6,7,7,8,6,7,7,8,8,8,7,9,11,10,9,9,9,8,10,10,10,9,8,8,8,9,9,7,7,7,7,6,8,6,3,4,6,5,4,5,3,3,4,4,5,4,6,6,5,4,4,5,5,5,5,5,5,5,8,9,8,8,6,5,5,7,8,8,7,7,6,7,6,5,4,3,3,3,6,7,6,5,6,7,8,7,7,7,5,4,7,7,7,8,8,7,8,7,7,7,6,6,7,7,7,9,10,7,8,8,8,7,8,8,8,7,7,7,8,9,8,8,7,6,5,6,7,7,6,5,7,8,7,7,6,6,7,7,7,7,8,6,8,7,7,8,8,8,7,7,6,7,8,8,9,9,8,8,9,14,16,15,13,9,10,9,8,6,6,6,6,6,6,5,6,7,7,6,6,7,7,7,6,6,5,6,8,7,6,7,7,14,17,16,14,11,8,5,7,6,7,5,6,8,8,7,9,7,7,6,7,7,7,7,8,8,8,8,6,5,6,4,5,7,9,5,4,4,5,5,4,5,6,8,8,5,5,6,5,6,6,6,6,6,8,6,5,5,5,6,5,5,6,5,7,7,6,7,7,6,6,6,6,5,5,5,6,4,5,6,6,7,7,6,5,5,4,5,5,7,6,6,6,4,4,6,7,5,4,3,4,4,4,4,5,7,6,6,7,8,7,8,7,6,6,5,3,5,7,8,7,6,4,5,7,7,7,6,7,8,7,5,5,5,6,8,6,5,5,6,5,5,5,5,7,8,6,7,7,7,7,7,7,7,7,7,7,8,8,7,7,7,6,5,5,5,5,5,5,6,6,6,6,4,4,6,8,9,6,6,5,6,7,7,8,8,7,8,7,7,8,9,8,7,6,5,5,5,6,7,7,7,7,7,7,6,7,8,9,8,8,8,8,7,7,10,10,8,8,9,8,8,8,8,10,9,9,9,9,10,12,12,10,10,11,9,9,10,9,10,11,12,12,12,11,11,11,12,13,12,11,12,11,12,12,13,13,13,14,14,14,13,13,15,12,9,8,10,10,10,9,9,12,14,13,12,10,11,12,15,13,9,10,11,13,13,12,12,12,12,12,12,11,12,11,13,13,12,11,12,12,14,12,14,15,15,15,15,14,15,15,14,12,13,14,15,17,16,17,17,17,15,15,17,17,13,13,16,16,15,16,18,19,18,17,17,17,17,15,15,16,16,17,18,14,16,15,14,14,16,16,17,16,27,40,46,57,66,76,84,87,87,89,92,93,91,93,96,98,101,99,99,103,104,104,104,105,105,102,102,100,95,92,92,95,100,99,96,96,96,94,96,97,98,97,100,102,101,100,100,100,99,99,101,102,101,101,100,100,101,99,101,100,98,100,105,104,107,106,107,111,116,116,114,116,120,121,120,117,116,117,118,118,119,117,115,113,111,106,99,94,83,70,55,45,44,54,68,83,96,108,120,131,140,144,143,142,141,143,146,148,151,155,158,162,163,166,167,169,170,171,173,173,179,181,182,183,186,190,190,192,193,195,197,199,202,200,200,198,197,196,199,196,195,198,199,200,197,198,201,200,201,201,199,203,205,207,206,204,205,207,204,204,209,211,212,215,216,220,225,231,237,244,248,254,258,259,260,266,271,277,284,288,291,297,299,298,299,299,299,300,301,304,307,309,311,310,306,311,317,323,334,344,349,350,355,357,360,362,366,368,363,362,370,377,385,390,395,398,408,410,409,403,398,399,400,403,406,410,412,414,417,415,418,415,410,413,420,425,429,439,451,465,488,510,521,519,511,492,475,458,457,468,472,465,460,478,492,506,514,511,499,481,468,462,460,465,468,464,462,455,451,453,453,449,443,441,438,425,405,391,378,368,358,358,369,387,405,432,445,453,461,461,466,474,475,479,482,489,485,471,461,456,454,460,472,478,481,484,497,513,520,525,530,531,528,529,531,525,514,502,495,493,488,487,487,479,472,471,470,468,461,451,442,430,420,406,390,374,363,351,336,320,306,291,273,257,245,246,240,228,215,195,175,158,145,136,131,125,120,114,108,108,103,105,113,108,102,97,101,102,106,104,92,87,82,84,83,82,82,84,85,90,101,109,109,116,138,149,153,166,174,170,159,144,128,139,161,178,188,188,179,175,174,172,167,162,151,143,146,143,141,130,125,134,140,142,147,153,161,167,175,186,201,219,236,254,267,280,300,305,312,315,310,305,320,345,373,396,402,399,392,385,371,357,341,327,305,283,266,264,278,299,311,314,322,329,331,334,337,338,341,344,342,337,334,329,326,324,316,309,301,294,289,288,292,295,291,286,276,264,264,270,269,268,271
8,9,8,8,9,8,8,9,9,9,8,8,8,9,10,8,8,8,9,9,8,8,8,8,8,8,8,9,12,9,8,11,11,11,9,9,10,7,7,7,6,6,6,6,6,7,9,8,8,8,9,8,8,10,10,8,10,9,9,10,9,10,11,10,8,8,8,7,6,5,5,4,3,4,4,3,4,4,3,3,4,8,10,8,9,4,4,3,3,5,7,4,3,4,5,6,7,7,5,5,6,6,6,7,9,8,7,8,7,8,6,5,4,4,5,5,5,6,6,8,8,6,6,6,7,6,7,6,7,9,9,7,8,8,9,8,8,9,7,7,7,8,9,9,10,8,7,8,7,7,7,7,9,14,11,9,8,9,10,7,7,8,8,7,6,6,5,5,5,8,7,6,5,6,6,6,4,5,7,8,7,6,7,8,7,5,7,8,8,9,8,9,12,8,7,6,6,9,12,10,8,10,8,8,5,4,6,7,8,6,7,6,7,8,7,8,8,8,8,8,8,8,6,7,7,10,8,4,8,13,15,15,13,11,6,7,7,5,7,6,6,7,8,9,12,11,9,8,8,7,8,9,7,7,8,8,5,5,5,4,7,11,9,7,7,7,6,5,4,4,6,6,6,5,6,5,6,6,6,6,6,8,7,7,5,7,6,6,6,5,7,6,6,6,8,9,7,6,7,7,5,4,6,6,5,4,5,5,6,8,9,6,7,7,6,5,6,7,7,5,5,5,5,4,5,5,5,5,5,4,3,4,5,7,7,6,5,6,7,7,6,7,7,7,5,6,9,10,7,6,5,5,6,7,7,6,6,7,8,7,7,6,7,9,7,7,6,6,4,3,5,5,5,6,7,7,8,8,8,7,6,7,8,7,7,7,7,7,6,7,6,6,7,7,7,7,7,7,6,6,5,6,3,5,6,7,7,6,6,6,6,6,8,8,7,8,8,8,8,7,6,7,6,6,7,8,6,8,7,7,7,8,8,8,7,6,8,8,8,8,9,7,7,8,8,9,7,7,9,9,8,8,10,8,9,10,8,9,9,9,10,10,9,9,8,9,10,10,12,13,12,11,11,11,12,13,14,12,12,12,13,13,12,13,14,13,13,14,14,12,11,12,12,10,11,13,13,12,11,12,15,14,13,14,13,12,12,10,12,12,12,12,12,11,12,12,12,14,14,13,13,11,12,13,13,12,13,12,13,15,15,15,15,14,15,15,15,15,16,13,13,14,16,18,17,15,16,16,16,16,15,17,16,16,16,18,20,17,17,18,18,17,16,16,16,14,14,17,14,15,16,17,15,14,15,15,17,18,19,18,19,28,37,38,48,61,70,75,81,84,86,85,86,86,89,95,99,101,103,102,103,104,105,103,105,106,102,101,99,96,93,96,99,101,100,98,98,96,99,96,98,98,99,101,101,100,100,98,98,97,92,94,98,101,103,102,101,102,100,98,101,101,102,104,102,102,102,104,107,108,110,111,110,109,113,113,115,116,114,114,114,115,113,112,113,109,107,103,98,89,77,67,55,46,44,49,62,72,87,110,126,134,135,136,138,138,142,142,145,152,157,161,163,161,163,164,167,167,170,171,172,177,178,181,183,186,188,188,191,194,196,193,194,197,199,198,196,195,188,185,190,189,195,199,201,198,201,201,201,202,202,203,207,213,213,212,210,208,207,204,208,213,212,212,214,216,220,224,234,238,244,249,255,261,266,268,272,273,279,289,291,292,294,296,301,303,305,304,308,310,313,317,322,327,327,320,323,324,331,340,344,351,355,357,364,370,373,376,377,378,376,382,388,394,395,401,409,418,421,420,417,411,413,412,413,417,423,426,428,429,428,427,425,429,435,445,451,453,462,467,477,491,503,512,515,507,493,478,470,478,487,490,486,483,497,517,528,542,537,521,507,498,493,501,507,507,502,493,483,481,482,481,474,471,470,459,442,423,405,387,371,362,369,382,409,439,469,486,490,490,488,492,501,502,509,519,524,515,497,483,475,479,491,505,508,510,511,525,544,553,555,560,557,548,539,534,518,495,478,468,463,463,467,477,481,483,492,500,498,492,479,469,452,436,420,396,375,355,332,314,296,277,253,234,216,206,202,196,190,181,175,169,167,168,168,172,168,152,132,114,101,92,93,94,84,79,78,78,79,80,80,78,79,80,81,84,84,88,96,104,105,116,133,129,120,123,147,172,187,187,179,169,151,139,135,143,150,158,170,175,184,189,188,186,177,163,171,178,175,165,151,140,135,143,147,153,163,177,185,188,200,216,241,267,292,308,324,340,353,361,359,348,338,349,369,381,383,371,359,348,341,327,320,311,296,283,272,264,276,291,297,303,313,321,326,329,331,333,333,333,331,322,320,317,314,312,307,301,297,291,284,276,277,282,278,276,272,266,255,251,254,251,255,260
8,8,10,9,9,8,10,10,9,8,9,8,6,7,7,7,9,10,10,10,8,6,8,9,10,11,11,9,10,8,8,8,7,8,8,8,9,9,7,6,7,6,6,6,6,8,12,8,8,9,11,10,10,9,10,7,8,9,8,9,10,11,10,9,8,8,6,7,7,6,4,4,6,7,8,8,7,7,6,6,5,9,8,6,9,7,6,8,7,5,5,3,4,4,5,5,7,8,8,9,9,9,8,8,5,7,7,7,8,8,7,7,6,5,6,5,5,6,7,7,6,6,9,9,7,5,7,8,7,8,8,7,7,7,8,7,8,9,7,7,8,8,8,8,8,8,7,8,5,4,6,5,8,14,15,14,11,8,7,7,7,8,6,6,6,6,7,6,5,6,5,6,7,8,7,7,7,7,6,6,7,6,5,5,7,6,6,7,8,10,9,7,8,7,7,8,9,11,9,8,7,8,8,7,8,8,8,8,9,10,9,8,8,7,8,8,8,10,9,7,6,8,7,6,6,7,7,5,8,11,13,12,9,9,8,9,9,7,7,6,7,8,8,8,9,9,10,9,8,7,8,8,9,10,9,6,5,4,4,4,5,6,5,5,6,7,6,4,5,5,5,5,6,6,7,7,6,6,7,7,6,8,8,6,5,5,6,6,7,8,6,7,8,6,6,8,8,7,7,5,5,7,5,6,7,7,5,6,7,7,7,6,6,6,6,6,6,6,6,6,5,3,5,5,5,4,4,4,5,4,4,5,5,7,7,6,6,6,7,7,7,8,8,7,6,6,9,8,6,6,5,5,7,8,9,8,7,7,8,6,6,7,8,11,11,10,7,7,5,3,5,6,6,8,7,7,8,8,9,8,8,9,9,8,9,10,9,7,5,6,6,7,8,8,8,5,5,7,6,6,7,6,5,5,6,7,7,7,7,7,6,7,8,8,7,9,7,7,8,8,7,6,6,7,8,8,7,7,7,8,8,7,7,8,8,7,7,6,7,7,9,9,9,9,8,8,7,7,8,9,8,9,10,8,9,9,8,7,8,8,9,10,10,10,8,8,11,11,11,12,10,11,10,11,11,11,12,12,12,12,13,14,14,13,12,11,12,14,14,11,12,13,13,12,13,14,13,13,13,12,13,12,11,13,13,13,12,12,12,13,14,14,10,10,12,12,14,13,12,12,11,10,11,13,12,13,12,13,13,14,14,15,15,15,17,17,16,16,17,16,11,13,14,17,19,17,17,17,16,17,15,16,18,18,16,16,18,17,18,18,16,16,17,16,15,16,14,14,14,17,18,18,17,15,15,16,17,18,16,16,19,26,32,32,38,54,61,64,70,74,74,72,78,84,92,95,99,101,103,103,103,107,106,103,103,103,101,98,98,100,100,99,98,101,101,99,100,99,99,97,99,100,100,103,103,100,99,97,98,97,96,94,93,98,99,101,100,99,100,100,99,98,99,103,102,103,104,104,106,105,108,111,113,113,112,111,112,110,111,109,105,106,105,107,109,109,109,104,99,93,86,75,66,56,50,48,51,59,73,91,110,122,127,130,133,138,144,146,149,154,154,154,155,158,160,162,166,167,170,171,170,175,178,179,180,182,185,188,191,193,193,192,193,196,197,197,196,195,190,188,191,193,197,199,202,202,202,204,204,206,205,207,216,215,214,215,213,210,208,210,214,218,221,220,219,222,222,224,227,233,242,248,255,260,268,272,277,278,279,285,290,293,296,299,303,305,307,308,309,312,319,327,337,342,335,322,328,334,339,344,347,354,361,366,371,379,387,390,390,393,392,392,391,391,396,405,410,417,422,423,423,421,419,422,422,426,431,433,434,437,437,440,444,454,466,475,473,467,469,472,478,491,500,506,504,503,498,494,496,501,508,510,505,509,520,533,551,560,559,553,544,537,537,541,547,547,541,533,522,514,513,512,505,500,497,486,468,447,426,400,380,372,376,396,420,450,480,500,505,506,505,505,514,518,523,531,531,520,505,493,490,495,503,515,519,519,526,544,561,568,570,570,562,546,523,500,480,466,459,460,468,473,479,484,485,487,488,488,486,484,479,466,451,436,425,410,389,368,347,330,317,295,273,243,216,218,224,222,220,223,224,226,225,225,225,215,196,166,128,117,100,91,89,88,83,79,79,78,78,78,79,79,81,82,86,86,87,98,114,126,133,147,164,157,137,130,154,182,196,194,184,170,161,159,147,158,172,165,167,185,201,206,209,201,188,181,192,191,181,168,156,149,140,137,148,165,182,203,215,226,234,240,262,299,329,352,364,374,378,378,375,368,362,363,356,349,341,329,319,309,298,287,277,274,272,277,282,284,284,292,295,294,298,305,309,310,315,316,314,310,308,305,305,303,299,299,293,289,286,278,272,266,261,261,265,264,262,259,249,247,247,246,252,252
9,10,10,9,9,9,8,7,9,10,9,8,9,8,7,7,8,9,10,9,9,9,8,8,8,8,10,9,8,9,9,9,6,7,8,9,9,7,6,5,6,6,7,8,9,11,13,9,10,9,11,12,10,8,10,8,9,10,10,10,10,9,10,9,9,8,7,6,7,6,5,6,6,6,10,13,11,7,6,6,5,3,4,5,5,7,9,9,9,6,4,5,5,4,5,9,7,6,9,11,9,10,8,9,9,9,9,7,8,7,5,7,7,6,5,5,4,4,4,5,5,5,7,6,7,7,7,7,7,9,8,7,7,7,8,8,7,7,6,7,7,7,8,9,8,8,7,9,7,5,5,5,6,10,13,12,10,7,6,8,10,9,6,7,7,7,5,4,4,5,7,5,6,7,7,7,6,6,7,8,9,8,7,6,9,7,7,8,9,10,9,6,6,8,9,8,9,10,8,7,9,9,9,10,8,9,8,7,7,8,7,8,6,6,7,9,8,9,9,8,7,6,7,7,7,6,6,7,8,8,8,9,7,7,9,9,11,11,8,8,9,9,8,8,8,10,10,8,9,9,10,8,9,9,7,5,5,4,4,5,5,5,6,7,7,8,8,5,4,5,5,4,6,7,7,8,7,6,6,6,7,9,10,7,6,6,6,6,6,8,7,7,7,8,8,8,7,7,6,5,6,7,5,6,7,6,7,8,8,7,9,9,6,6,6,6,7,7,5,6,6,5,6,6,6,5,5,5,5,5,4,5,7,5,5,5,7,5,4,7,8,9,8,6,7,7,7,8,6,6,6,7,7,7,6,6,9,9,7,8,8,8,9,10,12,10,8,7,7,6,4,3,7,9,7,7,7,7,7,8,9,10,10,9,9,6,6,6,7,7,7,7,7,7,9,8,4,4,6,7,5,6,7,8,6,6,7,8,8,8,8,8,8,7,6,7,7,7,8,8,8,7,7,6,6,6,8,10,8,8,8,9,8,7,9,9,8,8,7,6,8,10,10,9,9,10,9,9,7,7,7,8,6,7,9,8,9,10,12,12,10,10,10,10,11,11,11,10,11,12,11,11,12,12,11,9,10,12,12,13,14,14,12,14,12,11,12,13,14,13,11,11,14,14,14,14,17,16,15,13,13,13,12,12,13,11,11,13,12,13,14,14,13,10,11,12,13,13,13,14,12,13,13,14,12,12,12,12,13,14,14,13,15,15,16,15,16,19,19,16,12,10,10,12,14,16,17,16,16,16,14,16,16,17,19,19,18,19,18,19,17,16,16,15,14,15,15,17,17,17,16,17,17,17,17,17,16,17,16,16,19,22,27,32,39,45,51,53,55,59,62,69,80,86,93,96,99,101,103,103,102,103,103,103,104,102,98,97,101,103,104,105,102,103,102,101,101,97,99,99,98,100,101,101,102,100,99,96,99,101,100,100,99,100,99,102,100,98,97,94,97,101,102,104,104,102,103,105,107,107,109,112,112,111,111,111,111,109,111,111,110,112,111,110,110,110,107,102,100,93,85,82,79,73,72,70,59,57,64,73,86,103,118,127,132,137,140,144,148,150,152,152,156,159,160,165,167,167,169,172,173,176,177,178,179,181,181,179,181,189,192,190,193,197,196,194,193,196,197,200,201,200,200,200,205,207,206,205,202,203,208,211,216,217,215,214,216,212,212,217,222,225,227,228,228,228,223,221,222,230,241,251,256,263,273,282,285,284,283,288,292,297,300,303,303,302,303,303,307,311,318,333,347,350,340,332,336,340,346,349,354,357,363,369,376,382,392,402,407,412,413,410,404,400,399,401,407,416,418,418,421,424,428,428,429,431,435,440,441,445,448,456,469,484,490,493,486,473,471,474,484,498,504,507,511,510,510,516,520,524,527,527,524,530,538,546,557,564,570,574,577,575,572,577,582,582,577,568,560,555,548,542,539,535,526,513,491,465,441,415,393,387,402,415,418,430,453,469,479,487,499,502,504,506,507,513,510,499,485,476,472,473,481,490,495,497,511,532,546,548,544,539,531,516,490,473,465,467,473,479,473,463,456,454,453,460,461,450,444,438,437,428,411,399,392,384,370,353,332,318,305,285,271,248,225,235,260,267,267,266,272,274,270,253,232,203,162,125,115,110,96,87,84,82,80,80,80,80,79,80,81,85,88,95,98,100,101,107,126,143,166,182,189,186,167,152,163,187,199,202,196,179,170,169,153,155,172,179,181,182,189,199,208,204,194,195,213,218,208,193,189,178,161,147,145,169,191,218,238,254,257,267,290,323,341,347,344,342,342,341,335,335,333,328,323,314,309,306,301,291,282,283,289,292,292,293,291,287,286,284,277,275,276,281,285,289,292,290,285,282,282,278,276,277,280,285,284,279,275,274,271,258,251,249,249,249,249,243,241,233,233,234,239,243
8,10,9,9,9,8,8,8,9,8,8,8,10,10,9,10,9,8,9,9,9,9,9,9,9,9,9,8,8,6,8,9,8,7,9,9,8,7,7,6,7,7,8,12,12,10,12,11,11,10,11,12,10,8,9,11,12,9,10,9,9,10,10,10,9,9,7,7,7,6,6,6,6,6,8,11,11,7,6,4,2,4,5,5,5,6,7,6,6,6,6,5,5,5,6,8,10,11,11,11,10,11,11,10,7,6,7,7,8,8,6,7,7,8,7,7,4,4,4,5,6,5,6,5,7,6,7,6,7,8,8,6,8,8,8,7,6,6,8,10,11,9,8,6,7,8,8,8,8,5,5,5,5,8,14,14,13,9,7,8,7,6,7,6,7,7,7,7,5,6,6,8,7,7,7,7,6,6,6,7,8,8,8,7,10,10,9,9,10,10,11,10,6,8,8,8,9,8,8,10,11,11,10,10,8,8,7,6,6,6,9,10,9,8,9,9,9,8,8,8,7,6,6,7,7,7,7,7,7,7,8,7,8,11,10,8,12,16,10,9,13,10,8,7,8,11,11,9,7,8,7,7,7,7,7,7,7,6,6,6,5,6,7,7,7,9,9,8,6,5,7,6,6,6,5,6,8,8,8,8,5,6,6,5,5,7,6,7,6,6,7,7,7,6,7,7,7,7,7,6,6,7,6,6,6,5,7,7,6,7,8,9,6,6,6,6,7,7,7,7,6,5,4,5,6,5,4,6,7,7,5,8,10,6,6,7,8,6,5,6,7,8,9,10,8,9,8,8,6,6,7,7,7,6,6,5,8,9,8,8,7,8,11,11,10,7,6,5,6,7,8,8,8,8,7,6,6,6,7,9,9,9,9,9,9,6,7,7,7,8,7,8,8,9,10,8,5,5,5,4,5,6,6,7,8,8,7,7,7,8,9,9,9,9,7,7,7,8,6,7,7,7,8,8,7,8,9,9,8,8,7,7,7,6,9,8,7,9,9,7,8,9,10,9,8,7,8,8,8,8,7,9,7,6,8,11,10,10,11,12,12,10,10,11,11,10,11,11,11,11,13,12,12,12,12,12,12,12,13,14,15,15,14,13,9,9,11,12,11,12,12,11,10,11,14,17,17,15,15,14,14,13,11,11,12,13,13,13,13,11,10,13,14,13,14,13,13,14,13,13,14,14,15,15,14,13,13,13,14,15,17,16,14,13,14,14,17,19,18,15,12,12,11,11,12,11,11,14,15,17,17,15,14,15,16,18,18,17,18,21,19,15,14,13,15,17,16,15,18,18,16,17,16,17,17,20,19,19,18,18,18,17,21,22,26,30,33,39,49,60,71,75,83,88,95,98,100,100,102,99,100,101,102,102,97,96,99,102,106,109,109,108,108,106,106,104,103,102,105,105,103,100,100,97,99,95,95,99,101,103,99,98,99,98,100,103,99,98,100,101,102,102,103,106,103,104,106,107,107,108,107,107,112,114,109,110,110,110,112,112,111,113,113,111,109,108,106,103,101,100,95,94,93,93,94,88,73,58,57,62,75,91,111,122,130,134,137,140,146,146,150,153,156,159,160,164,166,168,172,174,173,176,177,176,180,181,178,177,181,189,191,192,197,198,198,196,198,200,201,203,203,199,199,202,204,204,205,206,206,209,212,214,216,217,220,222,225,226,226,226,227,230,238,246,243,234,229,227,230,236,243,253,260,265,273,284,290,288,287,287,287,296,300,299,297,297,297,299,302,306,315,324,340,343,340,335,336,341,351,360,363,366,368,372,373,380,390,401,415,421,424,418,410,407,406,406,412,408,409,414,424,430,431,435,438,444,450,451,453,456,461,473,485,494,500,495,491,481,476,479,487,499,512,519,521,525,533,540,545,550,556,554,553,552,550,556,567,575,581,595,605,605,602,600,601,610,611,601,592,586,583,574,567,560,550,530,502,471,441,415,400,411,431,443,434,419,421,434,440,448,460,473,476,471,472,473,476,473,460,448,444,445,456,462,468,476,491,506,514,513,503,492,489,481,473,466,460,452,453,456,446,431,417,415,417,423,421,418,408,398,394,389,382,376,364,346,330,316,298,280,266,252,238,233,239,256,262,257,250,253,262,268,256,228,195,156,121,110,99,86,81,80,81,80,79,77,79,81,82,83,84,90,104,123,134,138,128,117,123,139,166,194,200,199,193,175,178,195,204,206,200,190,188,183,167,159,169,185,204,211,214,210,211,215,213,214,235,247,240,224,208,192,177,161,149,163,187,207,216,222,235,265,294,305,304,302,298,295,293,296,288,291,297,302,305,303,297,293,290,288,290,288,283,283,276,270,269,263,264,263,261,256,259,262,265,269,269,265,260,261,261,257,259,262,262,264,263,262,263,263,256,247,242,239,237,235,238,237,233,226,221,228,232,235
9,9,9,9,10,9,9,10,10,10,10,10,9,9,8,9,9,9,8,6,9,9,8,7,8,10,10,10,8,8,7,7,7,7,9,9,9,9,9,9,9,8,10,12,11,10,10,12,12,10,9,10,11,11,10,10,9,9,8,9,10,10,11,11,9,8,7,7,7,7,7,6,6,7,7,8,7,4,7,6,5,7,8,6,5,5,5,4,4,4,5,5,5,6,7,11,13,10,12,12,8,9,6,7,8,7,8,8,8,7,7,7,9,8,9,6,4,4,6,7,5,4,6,7,7,6,7,8,8,8,7,7,10,11,8,8,9,9,8,9,9,7,8,8,8,8,7,7,6,5,6,4,4,5,9,10,10,10,8,6,7,7,7,6,7,9,10,9,6,5,5,7,6,7,9,7,7,8,8,7,8,8,7,7,8,8,7,8,8,7,8,12,8,6,6,7,8,8,8,8,8,8,9,8,8,9,7,6,7,8,8,8,7,7,8,9,10,8,6,8,7,8,9,8,7,7,6,9,9,7,8,7,8,12,13,12,12,8,6,9,12,11,7,6,7,11,11,11,9,7,7,6,8,9,8,9,7,7,7,7,8,7,7,9,8,10,9,10,8,6,9,8,8,7,7,8,10,9,7,6,7,7,5,6,5,8,8,8,7,7,7,7,7,7,6,5,5,8,8,8,7,6,6,7,8,5,6,7,6,6,9,9,6,5,6,6,6,7,9,8,6,4,6,5,5,5,5,6,6,6,6,7,9,8,6,8,8,7,7,6,8,9,12,12,9,8,8,7,7,7,7,10,10,8,8,7,7,8,8,7,8,9,8,8,8,8,6,5,6,8,7,7,8,8,8,9,9,8,7,10,10,9,9,9,10,9,7,8,8,8,7,8,9,10,8,5,5,5,6,6,4,5,6,6,7,7,6,5,7,8,9,8,7,8,9,8,7,8,8,8,9,11,10,7,8,10,9,7,9,9,8,7,9,9,11,11,9,9,9,7,7,9,10,9,7,6,8,9,8,9,9,10,10,10,10,9,9,9,11,10,10,10,11,12,10,11,11,10,11,13,12,11,11,12,13,12,12,13,13,14,14,16,15,13,12,11,9,11,13,14,14,14,14,11,11,13,13,14,16,14,15,14,12,11,12,14,12,13,13,13,14,18,15,16,15,13,12,13,13,12,15,15,14,14,14,15,15,15,13,12,14,14,14,14,14,14,15,16,14,13,13,15,12,12,12,11,11,11,13,15,17,16,16,18,17,17,17,16,18,20,18,16,15,14,16,17,19,18,16,16,16,16,17,16,16,17,17,18,18,17,18,18,19,19,20,24,34,42,53,65,71,77,79,88,96,98,98,99,101,100,102,103,103,102,100,99,102,103,104,107,109,109,109,109,110,106,102,106,109,107,105,102,99,96,96,95,99,102,104,104,102,101,97,96,99,100,99,94,98,104,106,105,103,103,106,108,108,107,105,107,108,111,111,113,112,110,109,107,109,112,111,110,110,106,107,105,106,106,104,101,100,101,101,101,98,85,68,53,50,57,69,85,104,115,121,129,132,136,142,147,149,153,156,158,161,164,167,167,169,170,173,179,177,176,179,179,181,183,186,190,193,200,200,198,199,203,205,205,204,202,203,195,193,199,203,204,205,210,211,215,217,220,219,221,225,231,243,250,248,241,236,241,253,264,260,247,237,233,233,234,239,250,260,266,268,272,280,282,284,285,288,287,288,289,287,289,292,293,296,301,309,313,320,329,334,332,334,341,356,368,373,376,374,374,377,385,396,405,413,423,424,421,418,420,419,419,419,415,413,417,425,433,439,441,446,451,455,459,460,463,466,477,487,492,498,501,503,491,483,483,490,502,518,530,536,547,560,570,578,583,586,588,583,574,569,573,578,593,602,617,629,630,624,615,614,620,625,618,608,597,591,585,577,571,557,534,503,472,444,419,412,432,453,465,451,428,415,419,430,441,458,471,476,476,471,467,466,465,457,453,456,462,464,465,465,465,470,478,481,477,468,453,446,442,434,424,408,400,411,429,428,413,394,385,393,395,395,380,368,364,367,366,364,354,335,313,289,273,262,254,248,240,232,237,243,234,227,225,220,221,233,239,218,191,147,117,98,83,75,74,77,78,78,78,79,80,81,87,92,98,106,100,116,140,156,158,153,139,133,136,160,196,210,213,205,190,193,212,225,225,222,214,210,202,183,174,187,194,206,224,241,243,235,235,236,242,257,261,251,236,228,219,204,182,160,155,175,182,194,209,226,248,262,271,269,267,271,268,267,257,249,259,258,262,274,281,280,277,274,272,272,267,262,260,256,245,242,243,242,244,244,240,236,235,235,234,233,233,233,235,241,238,238,238,240,246,247,247,241,251,254,247,240,235,231,226,222,224,222,213,213,220,226,227
9,9,11,10,9,10,10,10,11,10,10,10,8,9,9,10,10,8,6,6,8,8,9,8,7,10,11,10,10,10,9,8,8,9,9,9,9,9,10,11,12,10,9,10,9,10,8,8,8,9,7,8,10,11,11,12,11,10,11,13,13,11,10,9,9,9,7,8,8,8,7,6,6,8,6,7,7,6,7,7,6,8,7,5,6,6,6,5,6,5,6,7,7,6,9,10,11,12,14,13,12,11,8,7,8,8,8,8,8,9,8,5,7,8,9,6,4,4,6,6,5,6,6,7,6,6,8,8,7,6,6,6,8,9,9,9,9,7,7,6,7,9,8,9,8,6,7,7,9,8,8,6,6,6,7,8,8,8,9,7,7,8,8,6,8,10,10,10,8,6,6,8,10,9,8,9,8,7,6,6,7,8,9,8,7,8,8,8,8,8,8,10,7,6,7,7,7,8,7,8,10,11,9,8,9,10,8,7,7,8,7,7,7,7,8,9,9,8,6,7,7,8,9,10,8,6,7,7,7,11,9,7,8,8,11,14,12,6,4,7,7,7,7,8,6,7,8,8,7,7,5,6,9,8,8,9,8,6,7,8,8,8,9,9,8,8,7,9,10,8,8,8,7,8,8,7,9,8,8,7,7,9,9,6,6,7,7,8,7,8,7,8,7,8,8,7,7,7,8,7,7,7,7,8,8,8,6,5,5,7,7,7,6,7,8,7,8,7,6,7,7,5,6,5,5,4,5,6,5,7,6,6,6,7,8,7,8,9,8,7,8,7,11,10,8,7,7,6,6,7,8,7,9,7,8,8,8,7,8,9,7,7,6,7,7,6,6,6,5,6,7,7,9,9,9,11,11,9,9,10,10,9,9,10,9,10,8,7,7,7,8,9,8,6,6,7,4,5,6,7,7,7,8,9,8,8,8,7,8,8,9,7,7,8,8,8,9,9,9,9,9,9,9,9,9,9,8,6,8,10,9,8,8,9,10,10,9,8,9,6,7,11,8,7,9,8,8,8,8,9,9,10,12,9,11,10,9,7,10,10,10,11,12,13,11,11,11,11,12,12,11,11,12,13,11,12,12,12,13,13,12,12,12,13,12,11,11,11,12,16,16,13,14,14,14,12,10,12,14,15,14,14,13,13,13,15,14,13,16,15,14,15,15,15,15,16,15,14,14,15,16,15,15,15,16,16,15,13,14,13,13,14,14,14,15,14,12,13,14,14,17,17,16,15,15,13,13,13,14,13,16,15,17,18,17,16,19,17,16,17,15,14,14,18,16,16,17,18,18,18,16,16,17,16,16,17,17,16,19,18,17,18,20,20,22,29,35,44,57,65,71,80,84,91,91,95,98,98,100,100,102,106,103,101,102,105,107,107,109,109,109,111,111,113,114,112,109,109,109,105,105,101,102,103,101,99,101,101,98,101,103,102,101,99,95,100,104,100,98,103,104,103,102,102,104,107,106,105,105,108,109,108,107,108,104,103,103,104,105,105,106,108,107,101,103,105,104,106,105,104,103,102,98,94,83,68,53,47,48,57,67,80,94,109,115,120,128,134,139,143,146,151,154,157,160,164,165,167,169,174,176,178,178,179,182,182,186,190,190,193,197,199,198,202,204,204,204,204,205,203,196,186,178,182,194,210,214,211,214,220,223,224,225,228,234,239,248,259,260,253,248,250,258,266,263,252,244,239,235,230,232,242,251,259,262,265,270,273,276,275,275,277,280,285,285,287,294,296,298,302,308,310,313,316,318,320,327,337,353,364,374,378,376,378,382,393,410,423,420,417,414,414,416,417,417,418,418,420,425,429,429,433,437,441,448,457,461,467,470,474,475,481,489,493,501,511,510,504,498,489,489,499,517,536,560,577,594,602,607,613,617,615,608,601,596,591,592,605,615,626,636,635,629,621,615,617,616,609,600,589,581,575,570,563,549,524,495,469,433,417,424,448,476,489,473,449,434,438,457,476,495,503,505,504,498,490,489,484,476,473,485,490,486,479,472,469,465,461,454,446,433,423,415,399,383,373,362,362,381,405,422,411,386,366,367,374,381,371,353,343,339,329,320,307,290,276,264,259,265,260,246,230,220,226,224,205,188,185,183,184,194,196,178,146,112,86,77,73,74,74,76,77,78,79,82,88,92,99,117,132,137,127,120,127,143,170,182,175,162,145,146,176,206,217,219,214,217,229,249,262,259,253,240,224,203,192,198,213,210,221,254,268,266,267,266,275,282,279,277,271,261,241,217,193,175,162,158,172,202,227,240,242,239,240,237,237,240,238,236,230,228,238,247,255,254,245,242,241,242,246,252,249,243,238,231,223,220,221,219,229,231,226,215,212,209,207,212,218,215,214,217,220,220,222,228,230,229,231,230,234,239,237,234,231,227,221,214,207,205,204,205,208,211,216
10,10,11,9,9,10,10,11,9,9,10,10,9,11,10,11,11,9,8,10,10,10,11,10,9,10,10,9,9,9,8,8,8,9,8,9,10,14,15,12,11,11,11,11,10,11,11,8,7,7,7,8,10,8,8,10,10,11,11,11,12,9,7,8,8,9,10,10,9,10,8,7,9,9,8,5,4,7,8,5,6,7,7,6,5,6,6,6,9,7,7,9,9,8,8,9,9,12,14,14,12,13,11,8,9,9,9,8,8,9,8,7,8,10,8,7,6,4,4,5,5,5,5,6,6,7,8,9,7,6,6,8,9,12,14,11,8,7,7,8,9,9,8,8,8,7,9,9,8,8,8,6,5,6,7,8,8,6,9,7,7,8,7,8,8,9,9,10,9,8,7,8,9,7,7,8,8,8,7,5,6,8,9,6,8,7,6,8,7,8,7,8,7,6,7,8,7,7,8,9,10,11,9,9,8,10,7,7,7,6,7,8,7,8,9,11,11,9,8,9,9,9,9,9,8,8,9,8,9,12,9,8,8,7,8,12,10,6,6,6,6,6,8,8,7,7,9,8,6,6,7,6,7,8,8,9,8,6,6,7,8,9,8,8,6,6,6,7,9,7,8,9,8,8,7,8,8,6,7,7,7,9,7,7,7,8,7,8,7,9,7,8,7,8,8,7,7,7,6,6,8,9,9,8,7,7,6,6,5,6,7,7,7,7,9,8,7,6,7,7,7,7,8,6,7,7,6,8,7,7,7,6,7,7,7,6,6,8,7,7,8,8,10,10,9,8,7,6,6,8,6,5,8,7,7,9,10,10,9,8,8,6,5,6,7,7,7,6,6,7,7,7,8,9,9,9,10,11,11,9,9,10,10,10,11,11,9,9,8,8,9,9,9,8,8,8,8,7,7,8,8,7,8,9,8,7,8,9,9,10,9,9,9,10,8,9,9,8,9,9,8,7,8,9,9,9,9,8,7,9,9,9,10,10,9,10,9,9,11,9,9,10,9,8,10,9,8,8,9,10,8,8,10,8,9,10,11,12,12,10,11,11,11,11,12,11,11,11,11,11,11,12,12,13,12,11,13,12,12,12,13,13,12,11,11,12,12,12,12,13,14,14,15,17,17,14,10,11,17,15,12,13,13,14,14,14,16,15,15,16,14,13,13,14,14,14,14,16,17,17,17,16,18,17,16,16,14,12,14,14,11,13,14,16,14,13,14,15,14,12,14,15,17,17,16,17,17,15,15,13,16,17,16,17,16,18,21,20,19,18,17,15,15,16,17,17,17,18,18,18,17,17,18,18,17,17,16,19,19,18,19,20,19,19,20,29,38,50,60,67,72,77,84,92,93,93,94,96,99,103,103,107,108,107,108,110,111,109,108,108,108,109,109,111,113,113,112,107,103,106,105,102,106,106,106,103,100,103,100,99,99,99,100,98,97,101,104,105,100,100,102,104,107,107,103,106,103,104,106,107,105,102,99,97,99,102,104,104,104,104,105,106,107,106,105,103,104,106,105,103,101,97,86,72,55,46,41,43,49,59,64,75,90,103,111,119,128,133,138,143,146,150,154,157,160,161,165,168,171,175,175,177,181,183,187,189,192,192,191,191,197,200,203,206,209,208,204,203,202,202,200,191,184,187,200,212,219,222,220,222,224,225,231,230,238,246,254,259,262,263,259,256,257,259,258,256,253,250,249,244,241,244,251,256,256,262,266,270,270,268,273,278,281,286,289,294,297,304,307,315,318,321,321,319,313,310,315,331,351,362,370,371,371,372,377,387,399,408,408,408,406,408,412,413,417,418,422,425,436,442,443,442,442,441,450,457,466,475,486,490,490,490,488,492,504,515,526,524,517,508,499,508,524,549,581,600,620,627,624,621,619,611,610,612,609,603,594,600,606,608,615,619,618,611,601,596,600,598,592,582,569,558,545,538,525,504,477,451,429,424,439,459,486,493,479,457,443,455,479,500,520,537,540,536,532,525,516,503,490,491,504,507,495,479,462,449,439,429,420,408,401,393,379,357,342,331,321,330,351,381,418,421,395,370,351,348,344,338,333,321,310,300,290,283,281,279,276,279,281,263,237,208,188,180,185,188,184,170,156,143,137,142,132,102,82,74,74,74,75,75,78,81,82,82,94,108,109,109,122,141,152,147,147,144,150,172,187,189,186,174,163,166,184,194,214,233,248,263,286,303,302,289,264,238,220,218,218,229,234,232,251,278,292,294,295,293,289,284,272,265,257,241,214,200,200,192,173,177,201,217,219,218,210,204,212,225,223,211,208,216,231,249,252,245,236,226,222,223,223,228,234,235,219,210,207,208,204,201,204,212,212,211,210,200,187,185,193,196,197,197,204,206,205,204,206,208,210,212,212,218,219,220,224,227,227,225,219,215,213,207,202,202,203,207
9,12,11,9,10,9,9,10,9,8,9,12,12,12,12,11,9,8,10,9,10,9,10,10,8,9,9,10,10,7,7,9,9,10,8,8,9,10,11,11,11,11,11,10,10,10,9,7,9,10,8,8,9,7,9,11,10,9,10,11,9,9,9,8,9,9,9,11,10,9,8,7,7,8,6,5,5,8,9,7,6,6,7,7,5,5,5,5,7,6,6,8,7,7,8,9,7,9,8,11,12,12,8,9,8,10,9,10,10,10,7,7,8,7,8,7,6,4,5,5,4,4,6,7,7,8,9,8,9,8,8,9,9,12,16,13,10,9,7,8,9,9,8,8,7,7,8,7,7,8,10,8,6,6,7,7,8,7,7,7,9,8,6,8,6,7,8,11,11,9,8,8,9,8,6,8,9,9,8,7,6,7,8,7,7,8,8,8,9,8,8,9,7,6,6,6,8,8,10,10,8,10,11,10,8,9,8,8,6,6,9,9,9,9,9,9,9,7,9,8,8,8,9,10,9,8,9,8,8,8,8,8,8,6,6,8,8,8,8,9,9,8,9,9,9,8,7,6,5,7,6,6,8,8,9,9,8,7,8,8,8,6,6,7,7,6,8,8,8,8,7,7,8,5,6,8,8,7,6,5,7,9,7,7,7,6,6,7,8,8,8,8,7,8,8,7,7,7,8,7,7,7,7,7,6,6,8,7,6,6,7,6,7,8,8,8,8,8,7,7,7,7,6,5,6,6,7,7,5,6,7,6,6,7,8,7,6,6,6,8,6,7,7,10,9,10,8,7,8,9,7,6,8,8,9,9,9,8,9,9,9,9,8,6,7,8,8,8,7,7,8,9,8,9,8,9,9,11,7,7,9,10,10,11,11,9,10,11,10,9,8,9,9,8,9,8,8,7,8,8,9,9,9,8,8,8,9,9,9,9,8,9,9,11,11,11,11,10,9,10,7,7,9,8,10,9,10,8,8,9,10,11,12,10,9,9,9,10,9,11,9,9,9,9,11,9,8,9,8,10,10,10,10,10,10,9,11,12,11,9,11,11,11,10,11,11,11,12,11,12,12,12,12,12,13,13,13,12,12,12,13,14,14,13,12,12,11,13,14,14,14,14,14,15,18,15,10,11,14,14,13,13,14,15,15,15,15,12,13,14,15,13,12,14,17,15,14,15,16,16,18,19,19,17,15,15,15,15,13,13,13,14,14,16,15,15,15,15,15,15,16,15,15,18,17,17,19,17,14,13,13,14,16,18,15,17,21,20,20,19,19,17,16,16,15,15,16,17,18,18,17,16,17,19,18,17,19,18,17,16,19,20,19,20,21,25,37,49,56,64,70,73,79,85,87,91,92,94,96,100,103,108,108,109,113,114,112,108,106,106,108,110,109,111,109,105,107,107,103,106,108,107,109,107,104,106,103,104,101,98,102,102,98,98,100,102,103,103,101,99,103,107,108,110,105,100,100,101,103,102,98,98,97,95,100,104,106,106,108,107,106,108,106,104,104,102,102,103,99,96,90,84,68,53,40,34,37,46,55,65,72,82,92,104,113,119,125,130,136,140,143,146,152,157,160,162,165,169,172,174,175,179,182,185,189,190,188,187,189,194,200,203,208,209,210,209,208,206,205,206,206,205,203,207,212,220,227,230,232,234,235,237,242,245,248,255,263,268,271,270,269,266,265,262,260,262,263,269,270,264,259,260,260,261,263,268,270,270,271,272,277,283,290,293,296,303,309,313,317,323,331,334,333,330,322,315,317,337,347,353,357,360,361,362,367,377,386,389,395,396,400,405,409,413,418,424,430,435,444,454,458,457,453,450,451,454,465,483,503,512,510,512,506,505,515,527,542,547,542,529,514,516,533,557,588,607,620,620,612,606,597,588,591,600,603,594,580,568,569,578,587,593,593,586,574,571,575,581,582,573,561,542,521,507,490,474,451,434,426,425,442,463,483,484,470,452,442,455,476,501,525,549,560,556,553,548,532,513,497,494,491,481,465,447,427,410,402,405,398,389,383,369,347,319,300,288,290,311,346,378,404,411,401,382,362,341,326,318,310,303,301,302,309,313,298,275,252,243,247,244,221,191,166,153,148,154,179,181,167,144,113,99,87,77,74,72,73,73,75,77,82,85,85,91,112,130,131,124,124,131,156,169,175,173,176,183,192,202,203,197,187,175,167,171,196,230,253,279,307,320,316,299,279,263,246,246,251,255,259,258,262,276,297,304,300,294,286,275,262,247,235,220,207,214,223,212,196,179,173,178,183,188,194,203,208,209,201,198,215,229,242,245,234,221,210,202,195,198,202,205,210,209,200,194,196,196,188,181,180,187,191,194,192,188,178,169,169,177,174,179,183,187,189,189,188,192,196,201,199,200,201,208,208,212,215,216,216,214,213,211,204,200,195,200
10,11,10,8,8,9,10,10,10,10,9,10,12,13,11,10,9,9,10,10,10,8,9,10,8,7,8,10,12,10,11,10,10,10,9,10,11,11,11,10,9,11,11,10,11,10,10,9,10,10,10,9,9,9,8,8,10,10,10,10,10,11,10,11,13,12,10,9,8,9,9,8,8,8,9,10,9,7,5,6,5,5,4,6,5,3,3,5,5,6,6,5,5,7,8,10,8,5,5,8,11,10,7,6,7,8,8,8,9,8,7,9,8,6,7,8,6,5,7,6,6,5,6,8,9,9,9,8,7,6,6,7,7,8,8,9,9,7,7,7,9,10,9,10,9,7,7,8,10,9,9,9,10,10,10,6,7,6,6,7,9,8,8,8,7,10,8,9,11,12,12,12,11,8,6,8,8,7,7,8,6,7,8,8,8,9,10,9,8,7,9,10,7,8,7,6,6,7,8,11,10,7,8,6,4,7,8,9,9,8,10,13,11,10,10,9,8,7,8,7,9,8,8,10,9,10,9,8,8,7,7,7,8,8,8,11,11,11,11,9,8,7,9,10,11,9,7,7,7,6,7,7,8,8,8,8,7,6,8,8,9,7,8,9,8,7,9,9,7,6,6,7,7,6,7,8,9,9,9,8,8,7,6,7,7,7,8,9,9,7,7,8,7,7,8,7,8,8,9,9,7,9,8,8,8,7,7,6,6,6,6,8,7,7,8,7,8,9,8,6,6,5,5,6,7,7,7,7,7,7,7,8,6,7,7,7,8,7,7,8,7,9,10,10,10,15,14,10,12,13,9,7,7,7,10,11,9,8,8,8,9,7,8,9,8,8,8,9,9,9,9,8,9,9,8,9,10,12,8,7,9,13,12,12,12,10,10,10,7,8,9,9,9,8,6,6,8,8,9,8,8,6,7,8,8,8,8,9,10,10,11,10,9,10,13,12,13,15,14,11,9,9,10,8,9,9,10,9,9,10,10,10,10,10,9,8,7,9,11,11,11,11,9,7,7,10,9,10,9,9,11,12,10,10,10,11,12,13,10,10,11,11,13,13,12,11,12,11,12,11,12,14,13,14,13,13,11,11,13,12,10,13,14,14,13,11,12,15,14,14,15,16,15,14,16,14,12,13,14,14,14,14,17,19,14,14,15,14,13,12,12,13,15,17,16,14,13,13,14,17,18,17,17,17,17,16,16,15,15,13,13,14,15,15,16,16,17,15,15,16,16,16,15,17,19,17,19,18,15,13,14,16,18,19,17,18,20,20,19,20,22,19,18,17,16,15,16,17,18,19,18,18,17,17,17,18,20,19,18,17,15,17,19,19,21,24,32,36,43,49,55,62,67,74,77,82,87,90,96,102,105,107,107,109,109,110,108,108,107,113,115,115,113,110,109,108,106,112,109,108,109,111,112,110,107,109,106,106,103,100,101,101,100,100,100,100,100,101,100,98,100,104,106,106,104,102,103,102,102,96,93,95,99,99,104,106,105,106,109,106,105,106,102,102,102,99,100,94,90,84,75,63,53,41,29,28,40,50,63,76,85,92,99,108,114,120,126,131,135,139,142,143,145,152,160,165,169,171,174,176,177,181,183,185,187,188,183,188,193,198,202,207,207,207,209,210,210,210,212,213,215,217,217,218,223,230,235,239,246,249,253,254,255,260,265,274,280,285,287,285,284,278,273,266,269,273,276,284,283,274,272,268,263,262,269,276,280,279,280,281,287,293,297,300,303,308,317,322,329,336,341,345,347,346,340,331,323,333,340,345,353,355,359,360,366,374,376,379,384,384,387,396,403,412,417,427,433,445,459,469,475,476,471,462,454,459,476,494,516,533,540,536,525,520,524,539,554,560,553,542,527,530,542,561,580,596,597,595,588,582,572,564,570,580,581,574,558,546,539,552,563,572,571,566,559,553,558,562,565,557,542,524,500,479,462,442,428,427,427,433,445,463,477,485,477,461,451,456,469,495,514,529,545,554,550,538,525,508,490,476,465,456,447,436,416,398,379,373,368,357,347,331,304,285,273,272,292,317,351,374,376,383,379,373,361,346,334,325,317,314,311,306,302,300,285,256,229,213,211,216,213,195,163,137,126,121,139,141,137,125,102,81,73,73,72,73,73,75,79,81,86,89,98,102,110,123,136,147,150,152,164,178,190,200,203,206,214,224,231,228,210,188,183,194,209,232,255,283,305,304,299,295,291,282,271,266,269,264,258,261,272,279,283,282,282,280,275,261,252,240,232,221,220,230,228,215,201,182,175,180,177,176,184,194,192,186,188,199,215,222,221,220,211,204,194,183,174,173,180,184,190,187,173,170,182,188,180,167,159,162,169,171,173,173,164,154,153,157,155,163,162,163,169,174,183,183,183,184,183,184,188,193,195,197,202,206,208,209,208,204,201,198,193,190
9,11,12,11,10,10,9,8,9,11,10,11,12,11,9,9,9,8,9,10,9,10,11,10,11,10,9,10,10,11,14,13,10,10,10,9,10,9,10,12,10,10,10,10,9,9,12,11,11,10,9,11,10,10,8,7,10,10,8,8,10,10,13,13,11,9,9,9,8,7,7,6,8,11,11,10,8,7,6,6,7,6,4,4,5,6,6,5,5,8,8,7,6,5,5,5,7,8,6,5,7,9,7,6,6,7,9,9,11,10,8,7,8,8,8,5,5,6,8,7,7,6,9,9,10,8,8,8,8,8,8,9,9,7,8,8,8,8,7,8,10,10,9,8,7,7,7,8,10,9,9,8,9,10,9,7,8,7,7,7,9,8,8,9,9,8,8,6,9,11,10,11,8,7,7,7,7,9,8,8,7,8,10,9,9,9,9,9,10,10,8,9,12,10,9,6,6,6,6,10,8,7,7,6,8,7,8,9,9,8,8,11,10,9,9,10,9,7,7,8,9,8,8,8,9,10,10,9,9,11,9,8,8,9,9,9,9,10,11,9,8,8,7,8,9,8,7,8,6,6,8,8,8,9,9,7,5,5,7,9,8,7,9,9,9,9,10,8,6,6,7,6,6,6,7,8,9,10,9,9,8,9,9,8,8,6,5,7,8,7,7,8,7,8,8,8,9,9,9,8,7,9,9,8,8,8,9,8,8,8,8,7,7,8,6,7,8,8,8,7,7,6,6,7,8,9,7,6,7,8,9,8,8,8,8,8,9,9,9,9,10,9,8,9,10,12,13,13,15,12,9,9,8,8,10,10,10,11,8,8,8,8,10,8,9,10,9,8,6,8,8,8,9,9,9,11,13,12,9,9,10,13,13,10,11,10,10,9,8,9,8,9,9,8,8,8,9,9,9,9,8,7,9,9,9,8,9,9,10,10,12,12,11,12,12,12,11,11,13,11,10,10,9,9,8,9,9,9,9,10,10,11,12,10,8,8,10,9,10,9,9,8,10,11,9,10,10,11,10,11,9,10,11,9,10,12,11,13,13,12,13,14,15,14,12,11,11,11,11,12,12,13,14,16,15,13,13,13,12,11,11,12,13,11,13,12,12,14,14,13,14,15,18,19,16,13,13,13,15,15,16,16,17,17,13,15,15,14,14,12,11,13,14,14,14,15,15,15,14,15,16,16,17,17,16,15,16,16,16,17,17,16,15,16,17,16,15,15,16,16,15,15,16,17,14,16,20,18,15,13,14,15,19,17,15,18,20,20,20,21,21,19,19,16,16,17,17,18,18,20,22,20,20,17,15,16,19,18,18,18,18,17,20,19,20,21,23,23,26,31,35,45,58,65,73,79,88,95,100,104,109,112,110,109,110,110,109,110,109,113,116,114,114,111,109,110,112,115,113,110,113,114,114,112,111,109,106,107,106,104,100,99,101,100,100,100,102,99,100,102,102,105,105,101,98,97,103,101,100,97,98,100,99,102,105,104,105,106,106,106,103,102,102,102,95,94,91,86,79,72,60,48,41,37,33,40,51,59,75,89,95,100,106,107,109,118,124,129,134,137,140,141,144,150,158,166,172,171,173,175,178,181,184,184,184,183,184,191,198,202,201,204,207,210,214,213,211,214,213,210,215,222,224,228,230,236,243,250,257,264,266,269,272,274,275,283,291,295,297,296,292,285,277,274,276,278,281,284,282,277,276,270,267,273,280,286,288,290,294,300,304,308,311,313,311,314,323,333,341,349,354,358,360,356,349,337,326,331,338,345,357,361,366,370,373,380,383,387,392,394,391,393,398,409,413,418,438,452,469,486,494,495,487,477,467,472,488,504,521,535,541,537,533,524,519,527,536,539,538,532,527,535,546,556,556,554,557,557,555,554,548,541,546,553,555,551,536,523,519,527,545,556,555,547,538,534,542,544,542,531,518,503,483,468,450,439,432,429,437,452,463,478,487,494,490,475,461,460,472,476,485,497,507,513,508,501,490,478,462,452,441,439,439,423,400,381,357,336,320,311,308,296,276,253,253,278,310,330,341,355,358,360,357,350,342,337,334,330,317,303,292,279,265,262,262,245,217,190,180,185,189,185,161,132,115,105,104,106,102,94,80,74,72,73,74,73,75,77,82,89,100,104,112,123,124,125,126,139,162,176,191,204,215,230,239,241,246,251,253,248,222,205,209,228,233,242,259,277,283,280,280,275,272,268,263,265,255,241,233,240,255,259,256,256,254,256,257,255,255,249,240,238,237,227,214,200,190,177,193,207,197,184,174,174,188,198,206,214,217,204,195,189,187,185,175,160,154,157,164,171,180,174,153,151,167,176,167,153,141,141,147,144,146,149,145,140,144,145,142,147,150,149,156,165,171,168,167,162,165,170,176,178,179,184,188,192,197,199,200,199,200,197,191,187
10,10,11,10,11,11,10,10,10,11,10,11,11,11,8,8,9,11,11,10,10,9,10,10,11,9,9,11,10,11,14,13,12,13,12,11,11,11,11,12,10,10,10,12,11,9,9,9,10,11,10,10,12,11,9,9,9,11,10,10,8,10,14,15,10,8,7,8,7,7,7,7,6,9,9,7,6,8,7,5,7,5,6,8,8,7,9,8,9,6,4,5,6,6,5,5,6,6,4,4,5,6,6,6,6,7,7,8,11,8,7,7,8,8,7,8,8,6,6,7,5,6,8,9,9,10,9,9,8,8,7,7,9,9,9,8,9,10,10,11,9,8,8,8,7,8,9,10,11,9,9,10,9,10,10,7,8,7,6,7,8,8,7,8,8,7,7,7,7,7,7,6,7,7,8,9,8,9,9,9,11,8,8,9,11,10,9,10,10,11,11,11,9,11,9,6,6,7,8,9,9,8,8,8,10,9,7,6,8,8,9,8,8,9,8,10,9,8,9,10,10,7,8,9,8,10,10,8,9,10,10,8,8,9,8,8,8,10,9,8,9,10,9,8,7,5,6,8,8,8,9,8,7,7,10,9,7,6,6,10,8,6,9,9,9,8,9,8,8,8,8,6,7,7,8,8,9,10,10,9,11,10,10,9,8,7,8,8,9,8,8,8,8,8,8,9,10,9,8,8,8,8,7,8,8,7,7,9,10,11,8,7,9,10,9,7,7,8,8,7,7,7,7,8,7,8,8,8,7,7,7,8,9,10,10,7,9,9,9,9,10,10,9,9,9,9,9,9,9,8,8,9,8,8,9,8,9,10,10,8,9,13,13,9,10,11,12,12,10,9,10,10,9,9,7,10,10,9,8,8,9,11,10,9,11,10,8,8,10,9,9,8,7,8,9,9,9,9,10,11,10,7,8,7,7,8,8,11,15,15,16,15,12,12,10,10,12,11,11,10,9,10,11,12,11,10,11,11,10,11,11,9,10,9,7,9,9,11,11,8,7,8,10,12,11,10,10,8,7,8,8,7,8,9,11,13,13,19,15,14,14,14,14,13,12,14,14,14,11,12,14,15,15,13,11,12,11,12,13,13,12,12,12,13,12,12,13,12,13,14,14,14,18,15,11,15,15,14,15,16,15,16,15,15,14,14,14,14,14,14,12,12,13,13,13,15,15,16,16,16,16,17,15,14,15,17,17,16,17,18,17,14,14,16,16,17,15,13,15,16,14,15,16,15,16,15,16,18,16,12,13,16,19,19,18,17,16,18,20,21,21,18,18,16,17,18,17,17,17,20,19,19,21,19,19,20,21,19,19,20,20,18,18,16,17,19,21,27,35,46,52,56,66,75,84,91,96,101,106,109,110,112,112,109,110,111,113,113,113,113,113,111,111,111,111,114,115,113,111,115,117,117,117,115,115,114,111,109,106,106,103,102,104,101,100,102,102,99,99,104,105,105,104,103,101,97,98,99,101,102,101,104,102,102,105,104,104,102,102,102,100,99,99,96,92,90,90,82,71,60,52,41,33,34,39,48,59,71,85,94,102,108,111,112,115,121,126,130,132,135,140,143,146,154,159,164,167,167,170,176,179,181,186,188,186,181,189,193,198,205,207,210,212,215,221,223,222,221,220,214,213,219,228,237,240,244,249,256,263,266,274,279,285,283,283,284,290,292,293,291,289,284,281,282,284,281,280,289,292,291,290,290,290,291,297,298,303,308,310,316,322,327,329,327,321,314,323,340,358,366,369,369,368,363,356,347,337,338,346,351,362,367,376,381,387,394,400,404,409,410,408,407,400,399,408,425,446,460,473,487,499,498,489,482,480,477,485,500,511,511,510,507,505,493,494,502,504,505,507,511,513,513,518,522,523,518,517,514,515,516,509,505,510,518,521,523,515,508,501,511,523,533,534,528,516,515,517,519,513,504,496,477,458,456,457,455,451,439,443,458,467,475,481,480,469,463,452,452,456,454,453,453,456,463,466,466,465,466,461,447,422,399,379,371,354,329,306,284,272,282,296,286,266,246,245,271,303,314,317,327,329,333,337,326,312,302,301,303,297,277,254,244,231,223,230,230,209,180,161,153,161,175,171,148,123,99,95,90,79,73,73,72,71,72,73,74,77,82,84,92,108,115,122,129,139,151,155,163,187,207,224,233,237,242,246,247,250,251,252,245,240,234,236,248,256,256,260,265,266,263,263,258,253,249,247,249,237,222,213,227,241,237,227,227,231,233,234,241,254,259,250,237,225,220,216,213,206,193,197,217,221,212,194,192,211,221,222,213,197,183,176,169,167,166,157,144,137,141,150,161,168,157,139,140,149,157,156,141,125,117,113,115,127,132,129,127,128,124,126,133,138,139,144,152,154,150,149,142,149,157,159,163,165,166,173,180,183,191,192,192,195,192,188,184
10,10,12,11,10,9,10,10,10,12,10,10,10,9,7,7,9,10,11,10,10,10,11,10,9,8,8,10,10,10,13,11,10,11,11,11,12,11,10,11,10,11,11,11,9,8,11,11,11,11,13,12,13,14,12,10,10,10,10,10,9,9,11,13,12,9,7,7,8,6,6,6,7,5,7,7,5,7,7,7,6,6,6,5,4,5,6,9,10,6,4,4,4,8,8,6,5,4,3,4,5,7,6,6,7,8,8,7,8,9,8,6,7,9,8,8,8,7,6,7,6,6,7,8,8,9,10,10,9,8,8,9,9,12,9,10,9,9,10,9,7,9,12,12,10,8,9,10,10,11,12,9,9,9,9,8,8,6,6,6,7,7,8,7,8,7,7,7,8,8,8,8,7,7,8,9,9,10,10,10,11,9,8,7,9,11,11,12,12,13,12,12,10,9,7,6,6,6,7,8,11,10,10,6,8,10,8,6,6,9,10,8,9,9,10,10,9,10,8,9,10,10,9,8,8,8,9,7,8,11,10,9,9,9,8,8,9,10,9,8,9,10,12,10,9,6,7,7,8,8,9,9,9,8,7,7,7,8,8,9,8,7,8,8,8,8,9,8,8,9,9,9,7,8,7,8,9,8,11,13,13,10,9,8,7,6,7,8,8,9,8,8,8,8,10,10,11,8,8,9,8,8,9,8,9,8,9,11,13,13,11,10,12,11,11,10,8,8,7,7,8,8,7,8,7,8,8,7,7,7,8,11,11,11,10,10,10,9,9,9,8,9,9,10,10,9,9,10,9,8,8,9,9,9,9,7,9,9,10,9,9,12,12,10,11,10,10,10,10,9,9,7,8,11,10,9,10,10,10,8,10,11,11,10,11,10,8,9,10,9,10,7,12,15,10,9,9,10,11,10,9,10,11,9,8,8,9,12,14,13,13,16,15,12,11,11,14,13,9,9,9,10,12,12,11,11,12,12,11,11,10,10,10,9,9,8,8,11,11,10,9,8,9,10,13,12,9,9,10,9,9,10,9,9,10,13,17,22,17,14,14,14,13,13,14,15,16,17,15,15,15,14,13,13,11,12,12,14,13,13,12,12,12,14,14,13,12,12,13,15,13,14,13,13,15,16,15,14,13,14,15,18,17,16,16,15,14,14,12,12,12,11,12,13,12,12,13,15,16,17,15,15,16,15,15,16,19,16,15,16,16,15,16,17,15,14,17,14,15,15,13,17,17,16,17,16,17,19,16,13,13,16,17,17,18,17,16,16,17,19,18,17,18,18,19,18,18,18,18,17,18,19,20,20,20,20,21,21,22,20,19,18,19,21,23,25,33,47,60,72,76,75,77,86,92,98,102,108,108,111,115,116,116,113,114,117,120,118,116,116,116,115,114,113,113,112,114,114,112,116,118,118,119,116,116,114,114,113,110,107,103,101,105,106,103,101,103,104,105,104,104,104,103,102,99,99,102,103,103,103,101,98,99,101,103,100,102,100,100,99,99,97,95,93,90,87,85,73,62,53,44,36,32,34,43,54,67,81,91,101,109,113,116,118,122,126,128,131,132,137,140,143,147,154,157,161,166,169,175,180,180,183,184,181,187,190,193,197,203,208,213,217,223,227,229,229,228,228,228,228,227,226,232,242,247,251,257,260,267,270,271,278,283,278,280,286,287,288,289,289,287,284,288,291,294,292,296,303,309,310,311,313,312,309,305,307,314,319,323,329,333,338,340,338,333,328,331,342,358,369,377,380,379,375,369,364,354,352,349,350,360,365,374,383,392,404,418,428,431,431,425,421,414,412,414,432,455,464,471,479,482,477,469,460,457,456,459,466,476,474,475,469,464,457,454,459,466,470,471,470,479,484,481,480,478,474,475,474,476,477,472,465,468,474,477,480,485,475,472,484,493,499,501,505,499,493,489,488,482,480,471,467,467,464,464,472,471,456,445,442,442,445,448,449,438,426,425,424,419,417,410,409,416,428,436,445,451,442,428,406,382,357,334,310,293,272,254,240,248,273,290,282,261,245,233,254,272,281,292,299,308,314,318,307,289,274,268,270,277,262,231,211,201,192,192,195,185,168,144,128,131,141,151,139,111,87,78,75,74,70,71,70,69,70,71,76,83,95,97,99,100,106,114,122,128,147,169,194,216,231,237,237,233,233,231,232,231,237,247,249,245,247,254,256,253,246,244,243,244,240,233,231,231,226,226,223,212,202,208,223,221,217,213,211,201,203,209,217,223,232,246,249,246,241,234,221,208,201,205,214,220,220,211,208,207,208,213,200,177,157,145,140,132,134,139,127,118,127,136,146,159,155,135,124,128,133,128,119,108,94,89,98,115,121,116,113,117,115,116,119,122,126,126,130,130,125,124,124,137,146,149,153,154,153,161,166,170,176,179,182,180,176,176,184
10,10,11,11,10,11,11,11,12,10,10,10,10,10,9,9,9,10,9,10,10,10,11,11,10,10,9,9,10,11,12,11,9,11,11,12,13,11,11,11,10,10,9,9,8,10,11,11,11,10,11,10,12,15,15,11,9,8,9,10,10,9,8,7,8,8,7,8,8,8,6,5,7,7,6,5,4,6,7,7,8,7,7,6,6,6,6,8,9,9,6,5,5,5,6,6,4,4,3,6,7,6,8,7,6,7,8,8,10,11,8,8,7,9,9,9,8,6,5,5,6,6,6,6,7,8,8,9,10,9,8,6,8,10,10,11,10,9,9,9,9,8,11,13,11,11,10,8,9,10,10,7,8,7,8,8,8,8,6,7,8,9,9,6,7,7,6,6,8,8,9,9,8,9,9,8,8,9,8,9,10,9,7,8,11,12,10,11,9,11,12,13,12,10,8,6,6,7,7,10,10,8,9,8,8,8,8,8,8,8,9,7,8,8,11,10,9,10,10,10,9,10,7,8,10,11,10,10,8,8,9,11,9,9,10,10,9,10,10,10,10,9,9,9,8,8,11,9,8,8,8,9,8,7,7,7,7,10,7,9,11,10,9,9,9,9,8,7,7,7,9,9,7,8,9,9,10,8,10,11,10,9,10,8,10,8,9,8,8,8,8,7,8,9,9,10,11,10,9,9,9,8,9,9,9,11,10,9,10,10,11,12,13,11,9,9,8,7,9,9,10,7,7,8,8,8,6,7,7,7,8,10,10,9,8,10,9,9,11,10,9,10,10,10,11,10,9,8,9,8,9,10,9,7,8,10,9,10,11,10,12,14,10,9,8,9,9,9,9,10,9,8,9,9,10,12,12,9,10,10,11,12,11,9,9,12,11,9,9,10,9,9,15,13,9,9,9,10,10,10,12,11,9,8,9,10,9,11,13,11,11,15,18,13,13,13,14,12,12,13,13,10,11,12,11,11,12,14,13,12,12,11,11,10,9,9,10,11,11,12,13,9,10,12,12,11,11,9,10,11,10,12,11,10,10,11,12,16,14,13,13,12,12,14,14,14,15,14,14,16,16,15,13,13,13,11,12,13,14,13,12,14,15,14,14,14,13,13,16,17,17,15,13,14,14,11,11,12,12,13,15,16,19,20,16,15,16,14,13,13,14,14,14,14,13,13,14,15,15,15,14,14,14,13,14,17,17,15,15,15,16,17,17,14,16,16,14,16,15,14,16,18,17,16,17,18,20,19,17,11,10,14,18,20,20,19,18,17,19,21,22,19,18,17,16,17,19,19,17,18,19,20,22,21,20,21,19,19,20,20,20,20,21,24,29,41,54,66,79,88,87,83,86,92,100,105,108,110,113,117,118,118,120,119,119,121,122,121,120,120,120,119,118,116,113,112,115,118,119,118,117,119,119,119,117,115,114,111,110,109,106,101,100,102,105,100,103,105,106,101,103,105,103,101,102,104,104,103,103,102,101,101,99,98,98,97,99,98,100,100,99,96,94,94,89,84,79,71,60,50,43,35,34,39,45,56,74,88,99,107,111,114,117,121,124,125,128,129,131,136,142,146,151,157,162,166,169,173,179,182,181,181,181,182,189,195,199,203,205,215,223,228,232,237,240,240,239,239,241,240,240,241,243,249,254,257,262,267,273,276,281,283,286,286,288,289,290,291,293,294,294,294,298,300,299,301,305,306,308,312,316,319,318,316,313,310,314,322,329,337,345,352,355,356,353,350,346,341,341,353,369,381,388,390,390,387,379,371,363,356,357,357,364,375,392,410,429,437,442,440,437,430,423,419,416,430,436,444,450,448,445,439,428,421,421,420,423,428,429,432,430,428,428,421,413,417,426,438,436,439,443,440,439,438,432,431,428,432,432,430,428,421,425,427,437,439,441,439,436,446,458,464,467,470,469,464,465,465,457,457,456,459,469,464,459,461,456,440,428,411,401,396,400,398,399,401,401,399,401,405,412,413,416,420,418,411,405,393,376,353,330,314,293,271,250,228,215,227,256,270,271,263,249,231,218,229,255,265,269,267,278,284,285,281,264,245,240,245,245,238,222,198,178,162,161,169,172,167,152,131,118,110,107,106,90,75,71,73,71,69,71,70,71,72,76,80,91,101,101,104,105,110,121,136,148,162,184,212,226,233,230,221,213,210,206,206,202,210,225,227,224,231,240,239,236,230,224,224,219,211,207,199,195,195,195,194,191,190,195,201,202,198,192,189,186,182,188,196,204,208,216,230,233,233,226,215,208,211,209,203,198,201,207,200,183,174,186,188,180,164,144,125,113,109,115,107,106,116,127,138,150,149,133,115,105,105,102,93,88,78,78,89,99,106,105,101,101,101,103,99,94,92,89,87,89,86,85,93,117,132,140,142,143,144,145,151,154,159,165,170,173,170,171,180
10,9,10,11,9,11,11,12,9,10,10,10,9,10,10,11,11,11,9,10,11,10,9,9,10,10,11,10,9,10,10,12,11,11,9,10,11,12,12,11,10,9,9,12,11,12,11,11,10,9,10,11,10,10,9,10,10,9,9,10,9,9,8,9,8,7,7,8,8,8,7,7,6,5,7,7,6,6,6,7,8,7,7,6,7,6,5,6,9,10,6,5,7,9,10,8,8,6,5,7,8,9,7,7,8,7,7,8,11,11,10,9,10,9,10,9,9,9,8,7,8,8,9,7,8,9,10,11,10,11,9,8,11,14,12,10,9,9,10,10,9,10,12,12,11,14,12,11,10,9,9,8,7,7,7,8,8,9,9,7,7,8,8,8,9,8,6,6,7,8,7,8,9,9,10,8,8,9,9,9,11,10,8,8,8,8,8,10,12,13,13,13,12,10,8,7,9,8,8,9,6,8,10,10,11,10,8,8,10,9,9,9,8,10,10,11,10,10,11,11,10,11,10,10,11,10,9,9,9,9,9,10,10,8,9,11,10,8,9,11,10,8,9,9,10,9,11,11,9,9,8,9,8,7,6,9,10,8,6,9,10,8,8,8,10,10,9,6,6,7,8,7,7,10,9,10,11,9,9,9,10,9,9,8,10,8,8,8,8,8,8,7,9,9,8,8,10,9,8,7,8,9,9,9,8,10,10,8,6,8,10,11,10,9,8,11,10,8,8,7,6,8,9,9,10,9,8,8,7,8,8,10,10,8,8,9,11,11,12,12,10,10,11,12,13,11,9,9,9,9,9,10,9,9,9,10,11,10,10,10,13,13,10,10,10,10,10,10,9,9,9,10,10,11,11,12,12,8,9,11,13,12,11,10,12,9,9,8,9,11,10,9,12,10,8,9,9,10,10,10,11,10,9,9,9,9,9,10,12,13,13,13,15,12,13,12,13,14,13,15,13,12,11,12,11,11,15,16,13,13,12,10,10,8,9,10,11,12,13,14,13,11,11,13,11,11,11,11,10,10,11,11,10,12,12,11,12,11,10,12,13,12,11,11,12,12,13,12,15,16,18,16,13,11,13,15,14,12,14,16,14,15,13,13,13,14,14,14,14,15,17,15,11,10,11,12,13,14,15,15,12,12,15,19,18,17,17,16,15,15,14,15,13,11,12,11,14,15,14,15,14,13,14,13,15,16,15,15,15,16,18,19,18,16,14,14,13,14,14,16,17,20,19,17,15,17,21,20,20,18,15,17,21,21,20,21,18,16,18,18,18,20,19,16,17,18,18,20,20,20,18,19,21,21,22,22,19,19,19,20,22,24,27,31,39,51,65,74,81,86,84,83,91,97,105,109,113,116,118,121,123,124,126,127,125,123,123,123,123,124,121,118,119,117,116,118,119,125,125,126,126,127,128,124,122,118,115,112,114,115,111,107,109,111,111,105,101,105,105,101,105,106,104,101,102,103,101,101,103,103,101,101,98,98,97,97,98,96,95,98,98,94,93,90,84,81,77,69,60,49,42,36,33,37,46,63,85,97,107,113,113,118,117,118,124,124,124,126,128,133,139,144,150,158,163,165,170,172,176,182,185,183,181,187,190,195,200,205,210,220,231,237,242,245,248,249,251,252,251,252,252,252,254,255,259,263,267,269,273,278,279,284,289,291,293,294,296,299,298,301,303,303,305,305,306,308,309,305,305,310,312,314,319,322,322,317,313,320,325,337,352,360,364,369,367,365,362,355,348,346,352,367,385,407,419,415,406,395,390,381,373,366,363,370,386,401,416,422,424,420,412,404,399,396,394,397,396,402,404,406,404,405,398,394,388,384,384,387,388,388,386,388,389,388,379,380,389,397,405,412,411,400,392,389,385,383,386,389,391,392,389,387,382,387,394,402,409,407,401,408,415,421,422,428,432,427,428,431,427,432,429,435,430,431,427,421,421,413,397,382,371,365,364,369,396,415,416,409,411,411,409,397,385,369,363,356,347,336,322,302,289,275,256,235,217,202,207,234,250,244,239,248,240,217,199,225,239,242,239,243,249,249,250,251,244,224,202,198,203,204,207,197,177,155,143,153,158,167,165,154,140,113,91,82,75,72,69,68,69,70,71,71,72,74,81,84,86,91,98,105,110,121,136,151,170,187,202,214,217,223,215,208,198,186,180,172,170,181,194,199,195,204,212,213,213,208,207,202,194,186,175,167,168,172,172,171,176,179,177,173,176,176,172,179,190,195,201,202,200,196,201,212,216,221,219,215,208,203,189,175,167,171,180,177,166,154,158,167,168,159,149,140,126,107,99,97,95,107,122,137,146,139,129,116,97,86,83,79,77,76,77,77,79,81,83,81,80,81,80,81,82,85,88,92,92,92,89,85,85,96,115,124,131,135,138,140,145,148,149,153,157,160,161,166
10,10,9,10,10,11,11,12,12,11,9,8,9,9,12,10,9,10,9,9,11,10,10,9,9,11,11,12,12,11,12,11,10,11,10,11,11,11,12,11,9,9,9,10,11,13,11,11,9,9,11,12,11,12,11,9,8,8,8,9,8,8,7,7,8,7,5,8,10,10,8,7,7,9,9,8,8,7,5,7,7,6,6,6,5,5,5,6,6,7,7,5,5,7,9,10,10,10,9,8,8,9,8,7,8,8,7,8,11,12,9,9,9,8,9,10,10,9,8,8,6,6,7,8,8,10,11,10,9,13,15,14,12,12,9,9,11,12,14,12,9,11,10,8,9,10,10,10,9,10,9,8,6,7,8,9,9,8,8,8,8,10,7,8,7,8,7,9,9,9,9,8,8,10,10,9,10,11,11,11,10,8,7,8,10,13,14,13,14,14,14,13,12,11,13,10,9,9,11,9,10,10,8,9,9,11,10,8,10,10,10,10,9,9,11,10,10,11,10,11,10,9,9,9,8,9,9,9,11,10,12,12,12,10,10,9,10,8,7,9,11,10,9,9,9,8,8,9,9,9,11,9,9,9,7,9,10,9,9,10,10,9,9,8,8,9,9,6,7,6,8,8,9,10,10,11,11,9,9,7,7,8,7,7,8,8,9,9,9,9,9,9,9,9,8,8,10,10,10,10,9,9,8,8,9,9,10,9,10,9,10,11,9,7,7,7,9,9,8,7,8,8,9,8,9,9,7,7,9,12,11,12,10,9,10,12,11,11,11,11,10,10,11,10,11,9,10,10,10,10,11,12,11,10,11,12,10,8,9,10,10,10,9,10,11,10,10,10,9,10,10,10,9,10,10,12,14,12,10,10,11,10,9,8,10,10,11,11,10,8,10,11,10,9,10,9,9,10,9,11,11,10,10,12,10,10,11,12,11,11,12,14,14,11,11,10,11,13,11,13,12,12,11,11,12,13,14,13,10,11,12,10,9,8,9,10,11,12,13,12,13,13,13,11,11,11,12,13,12,10,10,11,12,12,11,10,13,13,14,15,13,13,14,14,13,13,13,14,15,15,16,15,12,12,13,14,14,13,14,15,12,12,13,13,12,15,15,15,16,18,18,16,14,15,14,15,18,18,18,18,15,14,13,13,16,19,16,16,14,15,15,15,13,13,15,14,15,14,14,13,13,15,15,12,14,15,14,15,15,17,18,18,16,16,16,15,16,16,15,15,15,16,18,18,15,14,18,18,17,18,16,14,19,20,21,24,22,19,20,19,18,18,18,16,17,18,19,20,20,20,19,20,20,21,23,22,21,21,22,25,33,39,45,49,55,64,70,76,79,82,84,86,92,101,109,113,120,121,120,122,129,132,132,132,129,129,128,127,126,126,126,123,123,123,125,124,125,128,131,132,131,130,132,130,128,124,122,122,122,121,118,118,117,113,109,109,109,109,109,108,107,105,103,102,100,103,103,100,102,103,103,101,101,99,96,96,95,94,94,95,96,91,91,89,84,81,74,68,56,46,40,37,36,37,41,53,71,84,96,102,108,110,114,115,112,103,105,116,129,133,138,145,150,156,160,161,167,171,175,178,182,187,190,191,193,198,208,212,217,225,235,243,250,251,256,255,256,257,256,255,257,254,259,259,261,265,266,271,275,277,276,286,290,293,296,296,300,302,306,308,309,309,308,309,307,308,312,311,311,309,308,314,320,325,325,321,315,313,321,332,340,352,362,369,373,376,374,369,360,353,353,364,384,415,433,439,436,426,416,406,402,391,380,375,376,385,396,396,393,388,378,370,363,358,357,360,356,358,361,361,363,367,372,371,364,356,349,348,349,350,351,354,355,348,341,339,352,361,371,374,372,366,354,346,345,351,355,357,359,356,352,351,355,369,381,386,385,380,378,386,397,399,396,397,398,394,394,390,391,394,401,407,409,413,415,409,410,412,407,396,388,374,368,366,381,384,381,372,362,354,348,342,331,314,308,300,292,289,286,272,245,230,239,226,204,189,206,228,228,221,207,206,207,195,191,202,211,219,232,241,231,219,218,229,239,232,209,182,172,170,182,194,181,158,135,138,145,160,169,159,139,113,90,78,72,68,68,70,70,71,71,71,74,76,80,85,90,90,91,98,109,123,140,163,186,194,197,201,199,198,193,191,184,167,154,150,153,164,169,174,178,192,195,190,182,177,179,176,167,157,156,160,170,170,164,164,160,158,163,170,170,167,171,178,182,184,191,191,187,187,191,191,185,184,187,191,185,174,165,154,145,146,155,157,151,135,130,143,146,137,135,132,129,121,109,97,93,97,112,126,129,120,109,95,82,78,80,76,77,77,76,77,77,77,78,78,78,83,90,95,94,107,116,115,111,107,105,98,85,81,91,107,116,124,126,129,130,129,127,126,130,134,131,133
11,11,10,10,11,10,10,10,9,9,9,9,10,9,8,9,8,9,11,11,11,10,11,9,10,10,10,12,12,13,13,11,11,11,11,12,11,12,12,10,10,11,12,12,11,10,10,10,8,9,12,12,12,11,10,10,8,8,8,7,7,6,6,6,6,7,6,8,10,8,8,8,7,10,11,9,6,6,8,7,6,5,5,5,6,5,6,8,7,7,7,7,6,6,9,11,10,10,8,8,9,9,9,9,9,7,6,7,10,10,9,10,11,11,12,12,9,8,6,6,6,6,6,5,7,8,9,11,11,12,11,10,10,8,9,10,10,10,9,10,8,8,10,11,10,9,7,8,9,10,9,9,8,7,9,9,9,9,8,7,7,9,8,7,8,9,10,13,12,10,10,10,9,11,12,10,8,9,9,9,8,8,7,8,11,16,16,15,13,13,13,13,13,12,14,13,10,12,8,8,11,9,9,9,7,8,8,7,8,10,10,11,11,11,12,11,11,11,10,10,10,10,8,9,9,9,10,10,11,11,13,13,10,9,10,11,10,9,9,9,11,11,11,10,10,10,10,11,9,9,8,10,9,10,10,9,8,8,10,10,9,8,8,9,10,9,9,7,6,6,7,9,12,12,10,10,10,8,7,9,9,8,7,9,9,10,9,9,8,8,8,8,8,10,10,10,10,11,9,10,10,8,10,9,10,10,11,10,11,9,9,11,10,9,9,9,11,11,9,8,9,8,7,6,7,8,7,7,8,12,14,10,8,9,11,9,9,8,8,10,10,9,11,15,13,8,7,8,10,9,11,10,10,9,11,10,11,10,9,9,10,9,10,11,11,10,10,10,10,10,11,11,9,10,9,11,12,12,11,11,10,10,9,9,9,9,10,10,7,10,9,9,8,9,10,10,9,9,9,11,10,11,13,12,10,11,11,11,11,11,11,11,12,11,11,10,10,9,11,12,11,10,12,13,13,12,12,14,11,10,12,12,9,9,10,10,9,10,11,11,12,13,13,13,11,10,11,13,13,12,12,13,13,13,12,12,13,12,12,14,12,12,15,14,14,15,15,17,15,14,16,15,14,16,15,15,14,13,13,14,13,12,13,14,14,16,17,15,14,15,15,17,18,17,18,16,17,16,16,16,15,17,15,13,13,16,17,17,13,14,14,14,14,14,14,14,13,14,16,13,13,16,17,15,14,14,15,16,17,16,16,17,17,16,17,16,16,14,17,16,16,17,17,16,16,12,15,17,16,18,17,13,16,19,17,20,23,24,24,21,19,18,17,16,17,17,17,17,19,22,21,20,20,21,22,23,23,24,30,43,53,58,61,62,67,70,72,75,78,81,85,87,96,106,111,117,120,122,125,129,134,136,135,132,127,128,130,131,130,129,130,130,131,131,128,126,131,137,140,138,136,137,137,135,133,134,131,129,127,126,126,123,124,120,117,116,117,112,108,109,110,108,107,107,106,107,104,106,106,103,101,104,101,100,99,97,95,94,93,93,95,93,92,91,89,85,80,72,64,50,44,40,42,42,41,44,50,60,69,80,88,101,112,111,102,90,90,99,114,130,137,141,146,150,154,156,162,166,171,176,180,183,188,193,199,206,215,220,223,230,240,246,250,253,257,259,260,260,259,257,257,256,261,264,265,265,266,268,273,274,276,284,289,293,295,297,301,305,309,311,312,315,313,316,319,319,318,315,315,314,310,314,319,323,326,328,326,323,325,327,335,344,352,361,374,384,392,391,387,375,367,373,389,414,434,453,455,450,439,429,416,403,388,379,373,373,369,364,361,353,345,331,323,319,319,318,312,316,323,324,325,332,341,346,344,336,324,319,317,315,320,317,319,313,307,309,323,330,334,336,335,329,318,306,310,319,330,341,348,344,337,333,329,331,340,352,356,350,349,366,386,395,392,387,381,376,366,357,362,376,390,401,403,407,405,394,383,381,381,375,361,341,324,315,316,322,328,316,299,291,286,285,281,271,256,248,249,263,270,255,228,209,222,216,195,182,200,207,197,188,178,171,171,176,189,212,227,241,250,241,214,196,188,203,229,232,216,189,167,150,156,169,166,150,130,121,130,148,162,151,126,95,75,70,71,70,69,68,69,72,74,74,78,81,80,80,82,84,89,99,109,118,130,152,175,180,180,177,178,177,172,177,184,175,159,142,141,152,163,171,165,168,166,161,156,155,152,148,148,143,148,157,161,160,156,153,151,150,152,154,155,156,156,157,159,161,171,170,170,179,179,172,164,159,159,162,154,147,143,132,122,120,125,132,132,122,111,113,113,111,112,115,118,115,109,101,92,89,97,105,107,99,93,82,78,78,77,77,78,78,78,82,81,81,83,86,90,97,99,108,104,109,123,127,123,115,113,108,99,86,84,86,95,100,103,105,96,89,84,84,85,85,87,86
12,12,15,14,13,11,12,10,8,8,9,10,11,11,11,11,10,9,10,13,12,11,10,10,13,10,9,10,11,11,9,10,9,10,13,13,12,12,10,12,14,13,14,12,12,11,11,10,9,11,13,12,11,10,9,10,8,9,8,7,8,7,8,7,6,6,7,8,11,9,8,8,8,8,9,6,7,7,7,7,8,7,7,5,5,5,5,6,6,6,8,7,6,8,10,9,10,11,9,8,8,9,10,10,10,8,6,9,10,11,10,10,10,11,10,11,10,9,6,7,7,7,7,8,8,9,8,10,12,12,11,9,8,10,10,10,10,10,9,10,10,10,9,10,11,9,6,8,9,9,10,10,10,10,11,11,9,8,7,8,9,8,8,9,9,10,11,12,13,10,13,13,11,11,10,10,9,10,10,8,9,9,8,9,10,12,12,13,13,11,11,10,9,10,12,14,10,11,9,10,10,9,7,9,9,11,9,7,7,9,10,10,9,10,10,9,9,11,13,11,11,12,10,11,12,10,11,10,11,14,13,11,10,11,12,13,11,8,11,12,12,10,11,12,11,10,10,10,8,8,8,8,9,11,13,9,9,9,10,11,8,8,7,8,10,8,7,7,6,6,8,10,10,11,11,10,11,10,7,8,8,10,9,10,9,9,10,11,9,10,9,7,7,10,10,10,12,10,11,11,11,13,10,8,8,8,9,9,8,8,7,10,10,9,9,9,8,9,9,8,9,8,7,7,8,8,8,10,9,12,16,12,9,10,13,12,9,9,8,10,11,10,10,11,11,9,8,9,10,9,11,10,10,14,17,15,10,10,10,9,10,10,10,11,11,10,10,10,10,10,10,11,12,12,10,12,16,13,10,10,10,11,9,9,9,8,11,9,8,10,10,10,8,9,11,10,10,9,9,10,11,13,13,13,10,9,10,11,12,12,12,12,12,11,10,9,12,12,13,14,12,12,12,14,11,11,11,13,12,11,11,11,12,12,12,11,11,13,14,12,12,14,15,13,12,9,11,14,15,15,13,13,13,13,12,12,14,13,12,14,14,13,15,16,16,15,15,15,14,16,15,15,13,14,17,17,15,14,14,14,14,13,13,14,15,15,15,15,14,15,15,14,16,18,19,17,15,14,14,14,16,17,17,16,13,12,18,18,15,16,17,16,12,12,15,15,12,13,15,15,13,13,13,13,12,14,16,15,14,15,16,16,16,17,16,15,16,17,18,16,15,16,16,17,17,11,13,16,17,17,18,16,18,21,20,18,22,25,21,17,20,20,18,18,17,17,18,18,19,19,20,21,21,20,20,21,31,44,54,61,64,66,67,64,63,64,65,71,77,83,88,93,100,107,114,119,124,129,134,135,136,138,140,135,130,129,131,130,135,136,135,133,134,134,133,134,137,144,144,146,146,142,142,141,139,141,136,134,133,133,133,131,129,126,124,123,121,118,116,113,112,109,109,111,111,110,108,106,104,105,103,102,104,103,102,100,101,102,97,96,97,97,95,95,95,89,83,77,67,57,52,50,50,51,51,50,50,53,56,60,70,84,92,90,86,83,74,80,97,111,125,136,137,145,151,156,160,165,167,175,180,185,192,198,205,211,218,223,228,236,242,243,248,251,254,258,258,259,260,261,261,261,260,263,265,265,263,259,265,270,273,283,291,293,294,296,303,307,310,314,316,321,323,324,326,326,324,322,322,322,320,319,316,319,324,330,332,335,335,337,341,344,346,356,375,391,407,415,412,395,384,379,384,400,422,447,453,445,434,422,409,392,374,360,351,351,348,341,326,320,308,296,293,289,286,285,283,281,282,287,291,298,312,323,323,312,303,288,275,272,276,279,277,275,278,284,295,303,306,304,300,295,288,276,278,296,318,334,334,322,312,302,293,296,313,325,322,313,313,327,339,346,343,340,334,339,340,331,338,356,363,368,366,356,347,334,325,322,329,330,309,290,270,267,268,287,304,298,274,248,236,248,258,251,236,218,217,236,244,236,214,190,189,192,177,166,178,173,157,151,151,166,187,207,221,232,245,247,237,222,203,184,166,179,204,213,208,190,171,153,135,142,150,150,135,113,104,123,138,133,104,79,68,68,67,68,69,69,71,75,82,85,82,87,92,92,88,88,94,100,113,130,147,160,170,170,164,156,153,154,150,159,167,167,160,147,132,128,146,155,152,145,143,138,139,141,140,140,148,140,134,146,155,161,163,160,154,151,155,157,159,162,164,160,153,144,148,157,169,174,169,162,149,136,134,137,133,127,117,110,108,102,101,104,109,108,97,89,91,92,93,89,87,86,83,84,87,86,85,87,86,82,76,76,78,78,76,77,79,80,81,86,89,90,95,99,107,107,101,110,117,113,117,131,136,131,126,119,113,102,92,86,83,82,82,82,80,79,80,82,82,80,80,82
12,15,18,18,18,16,16,12,10,7,9,10,10,11,11,11,10,10,12,13,11,11,10,12,14,11,11,12,12,10,10,12,12,11,14,14,12,11,12,13,13,11,11,12,12,11,11,10,9,11,11,11,9,9,9,9,8,7,7,8,8,8,9,7,7,8,9,8,8,10,9,10,9,8,8,7,7,7,7,6,7,6,5,6,7,7,6,7,8,9,9,8,6,7,12,14,11,10,8,8,9,10,10,8,9,8,7,11,9,11,11,9,11,11,8,8,9,8,9,9,10,9,8,9,9,10,9,10,11,11,11,10,10,11,11,13,12,10,10,10,12,12,11,9,10,11,9,7,8,9,10,9,9,10,12,10,8,8,10,9,11,11,10,10,10,9,9,10,12,11,12,13,12,11,8,9,8,9,9,9,9,9,10,10,9,9,9,10,7,9,11,10,10,10,11,11,9,10,11,13,11,10,10,8,8,9,9,8,9,9,9,9,10,11,10,9,10,12,15,16,15,14,15,17,17,16,16,15,14,14,11,10,10,10,9,10,9,9,9,10,10,10,9,9,10,11,10,9,9,9,10,9,7,9,11,11,10,10,11,10,9,7,7,9,9,9,8,7,7,6,8,11,9,11,11,11,10,9,7,7,8,8,8,9,10,10,11,12,11,10,9,9,9,9,10,10,10,11,10,10,11,12,9,9,8,8,7,10,9,9,8,8,9,11,10,9,8,7,8,9,9,9,9,9,8,7,8,9,10,11,14,12,9,10,14,13,10,10,9,11,10,10,11,10,10,11,11,11,12,10,11,11,11,13,17,18,13,12,10,11,12,12,9,9,10,10,11,10,10,11,10,11,12,11,11,16,15,8,9,9,10,9,10,11,11,11,11,10,10,11,10,11,9,10,11,11,10,10,10,11,10,12,12,13,14,12,10,11,11,11,11,13,13,11,11,12,14,13,14,13,12,11,12,13,13,14,13,12,12,13,12,12,13,14,15,14,13,17,15,13,12,13,14,15,13,12,12,11,12,13,12,12,13,14,13,12,14,14,14,13,13,13,15,16,15,15,13,13,15,15,15,15,15,15,16,17,16,16,14,14,14,13,14,13,12,14,15,15,14,14,13,15,16,16,15,17,17,16,14,15,15,15,16,17,16,15,17,19,17,16,14,12,11,14,13,13,13,14,15,13,12,12,13,13,14,13,13,12,14,13,14,14,14,16,17,17,17,18,18,16,15,17,17,17,16,14,16,18,16,17,20,19,15,17,21,22,23,25,21,20,22,22,20,18,16,18,18,20,22,21,20,21,21,20,24,36,50,59,63,65,64,62,59,54,51,55,63,71,77,82,87,95,102,106,112,118,124,132,135,139,138,138,141,139,134,131,130,125,128,135,137,138,137,138,141,142,148,153,153,154,153,151,151,150,148,148,144,142,143,142,139,138,136,130,129,129,127,125,122,121,120,117,116,117,116,114,113,111,109,108,107,108,109,107,106,106,106,106,102,103,104,105,103,102,99,94,88,80,72,65,60,60,68,71,76,76,72,62,60,61,64,69,71,69,66,62,57,60,69,84,105,123,134,140,144,148,153,160,167,174,180,190,195,202,209,214,219,227,230,236,243,245,247,249,252,254,256,257,256,258,260,259,262,263,262,262,260,257,261,270,279,286,291,295,296,297,298,300,310,315,319,322,325,327,328,329,328,329,333,331,330,325,321,319,320,325,334,343,348,352,355,358,357,360,374,392,409,424,424,411,395,382,383,393,407,417,423,416,404,394,380,364,344,334,323,313,310,308,297,288,277,267,257,246,253,261,257,252,249,253,250,272,282,286,283,274,273,269,260,247,235,235,237,238,252,273,286,291,290,286,278,272,273,259,253,276,297,303,303,295,285,273,262,275,292,294,290,276,269,278,284,289,287,287,286,293,292,286,294,304,314,320,320,313,295,282,275,277,294,295,277,256,235,230,246,277,289,282,258,236,215,221,244,245,226,202,186,197,205,206,196,172,159,152,154,171,170,144,136,150,176,198,216,224,217,212,213,220,218,203,186,170,158,157,175,198,197,180,164,141,119,115,130,150,145,123,101,98,108,105,88,71,69,71,68,69,68,73,84,86,87,89,87,86,92,96,97,96,102,105,112,132,149,153,155,156,152,141,130,134,137,145,148,153,156,149,140,128,127,133,135,136,135,127,124,124,125,130,141,138,129,124,138,156,166,167,165,160,166,169,167,163,154,141,133,127,125,142,152,148,141,138,128,117,107,111,112,106,99,94,87,83,78,78,82,84,80,77,78,77,76,77,78,78,78,81,82,82,82,82,80,78,77,77,78,78,77,78,80,82,92,105,109,112,115,113,114,120,115,115,124,131,128,129,137,140,137,127,119,116,116,108,101,97,96,94,87,85,82,83,81,81,82,83
13,18,19,19,20,19,16,13,15,13,10,9,9,10,11,10,9,10,11,12,10,9,8,12,13,11,13,14,12,10,10,10,12,13,14,13,10,9,10,10,11,11,12,11,12,11,11,11,11,12,10,9,9,9,9,8,6,6,8,8,8,9,9,8,8,9,9,9,7,8,9,9,8,8,6,7,6,7,7,7,7,6,5,6,6,6,8,10,11,11,8,7,7,9,11,13,12,10,8,8,8,9,9,10,10,11,10,10,8,8,9,11,10,10,9,11,8,10,11,10,8,8,8,9,9,9,8,9,10,10,12,11,10,10,12,16,15,13,12,11,10,10,9,9,10,10,9,9,10,9,9,8,10,12,10,10,9,10,11,10,11,11,10,12,12,9,9,9,11,11,12,13,14,13,10,9,9,8,9,7,9,9,9,9,7,7,9,10,9,10,10,10,9,10,12,11,10,11,10,10,9,12,10,8,9,10,9,9,9,9,10,9,10,11,10,9,9,9,9,9,9,11,10,10,14,18,19,16,13,11,11,11,11,10,10,9,9,9,10,10,10,10,10,10,11,12,15,12,8,8,11,10,9,8,9,12,10,10,11,10,8,7,8,9,9,9,8,8,9,9,9,9,11,11,10,10,10,8,8,8,9,8,8,9,9,11,12,12,10,10,9,9,9,10,11,10,10,11,11,9,9,10,9,10,9,8,7,8,9,10,11,11,11,11,11,11,9,9,9,8,8,8,8,8,7,8,10,10,10,10,14,12,9,9,9,9,10,10,10,10,11,11,11,12,12,11,10,11,12,10,11,12,10,10,13,12,12,12,12,13,13,12,12,11,10,13,13,11,10,9,9,11,12,12,15,16,11,10,11,11,11,11,11,10,9,10,10,11,10,9,10,9,11,13,12,13,12,11,12,13,15,13,11,13,13,14,13,12,11,11,11,10,10,11,12,12,12,12,13,12,12,13,13,12,13,14,13,12,13,13,15,14,13,14,15,17,20,20,20,14,13,12,11,13,13,13,13,11,11,13,14,12,13,12,13,14,17,17,14,14,13,13,13,13,15,15,14,14,15,13,14,15,15,16,15,16,17,17,16,14,14,14,15,14,13,13,14,14,14,16,16,16,14,14,14,14,14,16,15,17,16,17,17,18,18,17,18,22,19,13,14,13,12,13,13,13,14,17,15,13,14,13,13,14,15,14,11,10,12,12,13,17,16,14,14,16,17,17,15,14,15,17,16,17,17,16,15,16,18,20,19,17,14,13,20,23,21,19,21,22,20,19,19,19,18,19,19,18,19,21,19,19,20,25,34,46,53,53,53,52,49,49,45,37,42,49,53,61,68,74,80,90,99,105,113,118,121,128,131,137,139,139,139,137,133,130,126,125,129,135,140,141,142,143,146,151,157,159,161,160,159,157,160,157,157,155,150,147,145,145,142,142,140,136,135,134,131,130,131,127,125,124,125,126,123,118,117,114,113,114,116,115,113,111,114,113,112,114,110,110,109,110,108,106,105,102,98,91,83,73,73,81,88,90,91,88,79,71,69,76,77,81,88,87,80,66,59,57,57,65,82,101,116,127,135,142,153,165,174,181,186,191,195,202,209,214,219,225,230,235,240,242,244,242,244,246,250,255,256,256,257,258,260,262,260,255,251,256,265,274,285,292,295,300,303,303,302,299,303,311,316,321,324,324,326,327,327,333,340,340,340,340,335,333,330,333,340,350,360,370,373,373,374,369,367,377,395,409,411,407,395,390,381,375,383,391,388,382,374,360,344,332,314,303,290,283,273,269,264,256,245,238,226,207,210,217,212,210,209,210,224,241,246,245,244,237,235,234,239,235,230,213,203,211,241,259,275,277,269,260,249,249,248,244,233,246,260,264,258,250,242,231,224,232,243,245,239,232,228,239,249,254,244,239,244,243,243,248,250,259,271,286,282,273,264,250,235,244,258,265,259,244,224,219,237,254,251,242,233,219,196,188,211,213,204,189,176,171,160,166,165,149,135,143,167,184,165,139,141,170,187,204,212,198,185,181,187,195,196,186,168,146,135,145,174,194,188,172,157,141,120,105,122,148,148,125,109,91,81,78,70,67,67,69,78,83,83,81,82,81,86,93,91,90,92,100,104,104,115,126,135,145,148,141,136,133,130,122,114,112,123,128,129,137,150,145,129,115,118,126,123,122,125,118,117,124,123,123,132,137,134,129,132,148,158,162,170,174,173,164,153,143,134,125,111,104,102,114,124,124,116,109,103,92,83,83,87,86,84,82,77,75,72,71,75,75,74,75,75,75,76,74,73,74,77,77,78,79,77,78,78,77,78,78,78,79,79,82,86,87,93,100,107,110,116,120,122,126,133,135,133,139,144,142,138,137,129,121,123,125,128,125,125,124,128,127,118,103,95,91,90,90,88,86
14,18,18,16,16,14,12,12,12,11,10,11,12,12,10,9,11,11,12,12,12,11,10,11,10,12,14,13,12,12,11,10,11,12,12,11,9,9,11,11,12,12,13,11,12,13,13,13,12,13,10,7,8,7,7,8,9,8,7,8,10,9,10,9,9,8,7,8,8,8,8,8,8,7,8,8,9,9,9,8,7,5,7,6,6,6,5,6,9,8,7,6,7,8,9,11,10,8,7,9,8,10,12,11,9,11,11,10,9,11,8,7,9,9,8,9,9,10,9,8,8,6,8,6,8,11,9,7,8,10,10,9,8,9,10,11,13,15,14,11,9,9,9,9,9,10,10,10,8,9,10,10,8,11,11,11,13,15,14,10,8,8,9,9,8,8,9,10,9,9,12,15,15,12,9,8,9,9,8,7,10,11,10,10,10,9,10,10,10,9,10,10,9,10,10,11,11,9,9,10,9,9,7,8,8,9,8,8,7,9,9,9,11,12,10,9,11,10,10,10,10,10,9,10,11,16,14,10,11,12,11,10,10,11,11,9,9,8,9,10,10,11,10,10,10,11,13,10,9,9,11,12,9,11,11,11,11,10,10,10,8,9,11,11,11,10,11,10,9,8,8,9,12,11,12,11,11,10,10,9,9,10,9,8,11,13,12,10,9,11,11,9,9,9,10,11,12,12,11,10,10,10,9,10,9,11,11,11,11,11,11,9,10,10,10,11,9,9,8,9,9,9,10,9,8,10,10,9,9,11,13,10,8,9,9,9,10,10,10,10,12,10,11,10,10,10,10,10,10,10,11,10,11,11,10,9,12,13,14,13,12,11,12,10,11,15,12,12,13,13,13,12,12,13,15,12,10,10,11,11,12,12,12,12,11,10,8,11,10,9,10,9,10,10,9,10,13,14,11,12,18,14,14,17,14,13,14,11,10,11,13,13,11,12,13,12,14,14,13,14,13,12,12,12,16,14,13,14,13,14,14,16,16,17,17,18,18,18,16,15,15,13,11,13,14,13,13,13,12,13,14,12,13,13,14,14,14,14,13,13,14,14,14,15,15,14,14,14,15,15,15,15,15,18,16,15,17,16,12,12,13,13,15,15,13,13,12,14,14,15,14,14,14,14,14,14,15,16,18,19,17,17,17,18,16,15,18,20,17,16,14,13,13,14,14,13,14,15,14,14,16,15,15,15,15,14,13,13,13,14,16,16,17,17,15,16,16,18,18,16,14,16,18,18,16,18,19,19,20,19,18,19,17,14,18,20,22,22,22,21,21,20,18,20,21,22,21,18,19,20,20,19,21,27,35,39,42,36,30,32,32,31,29,25,31,36,40,45,55,65,77,88,97,107,113,116,121,127,131,137,138,138,135,133,131,131,133,135,136,140,141,141,142,149,153,157,164,163,162,163,164,163,162,162,163,157,152,151,150,146,145,145,146,142,140,138,140,140,138,137,131,132,131,130,127,124,119,118,118,120,121,118,116,115,114,116,119,118,119,122,122,120,116,116,113,109,104,98,88,83,92,99,102,100,96,93,88,81,84,95,100,105,113,116,107,92,78,67,61,58,69,82,94,111,128,146,163,170,176,182,190,193,198,205,211,218,222,224,228,233,239,239,240,238,237,239,242,247,251,251,253,256,257,261,260,260,262,267,278,284,292,298,304,308,310,309,311,310,308,311,315,318,319,320,325,324,331,340,345,347,349,350,349,346,342,340,344,355,368,380,385,387,385,380,376,378,380,384,385,384,380,376,370,365,363,365,358,351,340,320,303,288,280,268,258,242,235,228,224,225,219,209,196,180,169,178,174,168,168,182,205,216,218,218,220,222,222,220,224,219,221,209,187,194,222,242,251,253,249,240,232,230,222,206,199,202,211,220,216,209,203,192,184,184,193,205,201,191,193,208,230,234,218,205,207,205,209,217,216,230,249,249,240,226,224,215,205,209,221,233,223,213,208,206,222,239,236,221,199,184,172,163,187,214,224,210,189,164,153,146,136,125,136,165,188,181,153,134,136,153,166,187,194,177,159,152,170,191,196,181,158,133,120,144,171,185,175,157,145,137,121,101,113,135,137,120,101,83,72,69,68,68,71,77,87,89,82,78,77,80,80,87,89,95,99,102,110,124,134,147,158,155,147,140,140,135,132,121,114,102,103,117,118,118,126,124,108,105,116,116,117,120,125,122,122,133,131,126,133,142,145,138,137,139,145,152,161,164,165,158,147,132,118,105,90,85,81,86,91,92,91,87,83,80,78,77,78,79,79,79,77,76,73,71,72,74,74,75,75,74,74,73,73,74,75,73,74,75,76,77,76,77,78,78,77,81,85,91,97,101,101,97,96,100,104,112,121,130,136,142,145,148,150,152,150,145,135,125,122,128,131,131,134,136,139,146,144,136,130,126,120,117,111,104
