144,145,145,145,144,142,145,144,142,143,144,143,143,141,143,146,155,167,169,168,168,169,169,166,165,165,163,161,159,161,162,161,161,164,162,154,152,154,171,179,166,155,151,150,150,147,143,145,145,146,143,145,145,145,144,144,141,142,143,146,147,145,142,141,141,138,138,138,138,138,137,137,139,138,137,137,137,134,132,132,136,135,132,133,132,132,130,128,130,130,130,131,130,132,131,130,131,129,130,128,127,127,127,126,126,126,126,124,126,127,125,126,126,125,124,124,122,123,122,121,120,119,119,121,119,118,118,116,120,119,117,116,115,115,115,113,114,113,112,111,113,111,112,113,114,113,110,110,112,112,111,110,110,108,107,104,107,107,106,104,104,106,106,106,107,104,104,110,112,113,113,113,113,115,117,117,116,115,115,116,117,116,113,113,113,111,113,113,113,111,110,111,111,111,111,112,112,113,112,111,113,112,110,110,112,113,115,116,114,108,103,98,96,96,97,95,98,100,107,118,132,138,143,150,159,170,179,196,204,207,204,199,194,194,196,199,188,180,187,192,188,182,175,157,139,138,161,187,193,189,189,196,207,214,204,179,159,167,180,190,179,161,148,141,133,125,121,117,122,132,145,159,168,173,173,176,179,177,168,159,154,152,151,154,158,168,170,165,156,149,142,135,128,118,109,104,102,97,92,92,92,88,86,85,80,75,71,64,62,63,64,64,63,63,62,61,61,61,62,62,66,68,68,67,62,58,57,56,54,56,57,58,57,54,54,54,54,54,54,53,51,53,52,51,49,51,52,53,52,51,52,51,50,48,48,50,49,49,48,47,46,47,47,47,47,48,45,43,45,44,44,43,43,42,42,43,44,41,42,44,44,45,41,40,40,41,38,38,38,40,39,39,40,40,39,40,41,41,39,40,41,40,39,39,39,40,36,36,34,34,35,32,36,37,35,37,37,35,35,37,37,35,35,35,36,35,34,33,34,34,36,34,32,32,33,31,31,32,31,32,33,32,30,30,30,31,31,31,32,32,29,28,30,30,29,29,30,29,29,29,28,27,26,27,28,29,30,27,25,26,28,27,24,26,25,28,28,28,28,29,26,26,30,29,26,26,25,25,22,21,20,23,26,26,27,26,26,27,26,26,24,23,24,23,23,24,25,22,21,21,21,22,22,20,20,21,24,25,25,24,23,22,22,21,21,19,19,19,20,22,21,20,20,19,18,18,21,19,19,19,19,18,19,18,16,18,18,18,17,18,17,15,15,14,14,17,17,16,16,14,14,14,16,15,14,14,13,13,14,15,15,15,15,14,15,15,15,13,13,15,14,14,14,13,13,16,16,14,12,14,13,12,14,12,11,12,11,11,11,10,12,12,13,13,9,9,9,8,8,7,7,9,9,9,11,12,14,11,9,7,7,9,10,7,8,8,5,4,7,7,6,7,9,8,7,8,8,7,6,9,10,9,9,9,10,9,10,11,12,12,10,6,8,10,9,8,11,11,11,10,11,14,14,14,14,13,12,13,13,11,13,13,13,11,11,12,12,10,11,12,12,12,12,12,12,11,12,12,11,11,11,10,11,11,9,10,9,6,7,10,11,11,10,10,11,12,11,10,12,14,14,12,10,10,11,11,12,11,13,12,12,9,11,9,10,12,13,12,10,10,8,7,3,3,6,4,6,8,11,11,10,10,10,10,12,10,11,11,9,8,9,8,8,10,10,8,4,6,6,6,5,5,5,8,9,9,10,11,13,11,10,11,11,10,10,9,8,8,8,11,11,11,10,9,9,10,10,10,11,12,12,11,11,11,8,9,10,11,11,11,18,25,25,24,19,13,12,12,12,10,11,9,10,10,10,9,9,9,9,9,8,8,7,8,8,9,12,11,10,10,10,8,8,6,5,8,8,10,10,9,14,14,11,5,3,8,9,8,11,12,12,11,10,12,9,8,7,9,8,6,8,9,8,7,10,9,8,11,11,11,12,13,14,13,12,14,15,14,14,14,13,12,10,9,10,12,11,12,10,9,10,10,11,11,11,12,13,13,13,13,13,13,14,14,13,13,12,12,14,15,14,13,12,12,11,12,12,13,14,12,12,13,13,13,14,13,13,13,18,16,14,13,14,14,14,14,14,12,12,13,12,13,14,12,12,12,12,14,14,13,11,13,15,15,13,14,14,13,11,12,13,12,15,16,14,11,11,11,12,11,11,10,11,11,11,11,10,10,11,13,13,12,12,11,11,14,14,11,13,15,15,17,15,15,13,14,12,14,17,16,13,13,13,15,14,15,15,14,13,13,14,13,14,15,14,14,13,12,13,13,13,13,13,15,15,15,16,16,14,12,12,14,12,11,12,15,14,14,14,15,14,15,15,15,15,14,12,12,12,12,12,13,15,13,14,16,20,18,16,14,15,14,14,14,14,13,14,16,16,16,17,16,17,16,16,17,16,16,15,15,15,16,16,16,16,17,17,16,17,16,15,16,16,16,15,15,13,14,15,15,16,15,15,14,14,14,17,17,16,16,13,13,18,15,14,15,16,15,15,16,15,14,14,14,14,15,14,14,14,16,16,15,13,12,12,13,12,12,14,14,13,14,13,11,12,12,12,12,12,11,12,11,12,11,10,10,11,13,14,13,12,8,6,8,13,16,16,14,14,14,13,13,12,12,14,13,14,14,13,13,12,9,11,10,9,9,10,11,10,10,11,10,9,9,10,10
144,140,143,145,143,142,144,143,143,146,145,144,143,145,158,166,171,172,170,171,171,168,168,167,166,167,165,161,163,164,165,162,163,163,162,155,153,177,192,173,158,153,151,149,149,147,147,146,144,143,140,142,144,144,143,143,142,143,144,143,144,142,140,140,141,142,140,137,139,137,137,139,137,135,136,137,137,135,133,129,135,134,132,133,133,132,128,129,131,131,129,128,128,129,127,130,131,129,129,130,128,127,126,125,124,125,126,126,127,126,125,125,125,125,124,124,123,123,123,123,121,121,120,121,119,117,117,116,118,118,116,117,115,115,118,114,112,113,114,111,111,108,111,110,111,113,112,111,111,111,109,107,106,105,106,107,106,108,107,107,106,107,108,107,107,108,109,112,112,113,114,116,114,116,117,117,117,117,117,117,118,118,115,113,113,112,111,111,111,111,110,112,111,110,112,114,114,113,114,114,114,111,112,114,116,117,118,117,116,114,111,108,102,98,95,95,94,97,102,109,123,130,138,147,159,168,181,197,207,208,203,199,199,203,203,208,202,196,195,183,174,167,156,149,152,143,151,168,173,176,180,188,205,216,212,187,169,180,200,205,198,181,164,152,140,130,122,121,120,124,129,133,136,143,155,176,191,187,173,166,168,174,174,172,174,177,178,172,164,157,146,138,128,118,110,103,99,94,88,82,81,79,77,74,72,71,67,65,62,60,62,62,62,63,62,61,60,61,62,62,63,63,64,58,59,61,57,57,57,58,58,57,56,53,52,54,53,52,53,52,51,50,50,51,52,51,47,48,50,49,50,49,48,48,48,49,50,49,48,46,46,48,47,48,49,48,48,45,44,46,47,46,44,45,44,44,44,43,44,46,45,42,42,43,41,40,42,43,38,37,39,39,40,41,42,40,40,41,42,42,40,41,41,40,40,39,38,37,37,36,36,36,36,37,35,35,35,37,37,37,36,35,36,37,37,35,34,34,35,34,32,33,34,33,33,33,30,30,31,30,32,33,33,32,31,32,31,32,32,34,34,32,32,33,33,31,32,30,27,27,29,29,26,27,25,26,28,25,28,28,27,27,27,26,26,27,28,29,30,30,28,27,29,27,25,22,22,24,24,24,24,22,25,26,24,25,27,27,26,25,26,24,24,23,23,24,22,19,20,22,23,22,23,23,23,23,21,22,25,24,23,21,21,22,23,21,20,22,22,22,22,20,21,21,21,22,23,21,20,20,19,20,20,19,19,17,17,18,18,17,15,15,17,16,16,17,16,15,15,15,14,14,15,14,14,13,13,13,15,17,13,13,15,14,15,15,15,15,16,15,14,15,13,12,14,20,17,16,15,14,13,12,12,10,10,13,15,15,11,10,8,11,13,12,12,9,9,8,7,9,9,10,9,11,9,9,9,9,8,7,5,6,6,7,9,7,5,4,6,6,6,9,9,9,9,7,7,10,11,12,11,10,9,9,11,11,10,12,11,10,9,6,7,8,9,9,10,11,12,11,11,13,16,18,18,15,12,13,15,14,14,12,12,12,12,13,13,12,12,10,10,10,11,11,14,12,11,13,13,12,10,9,10,8,9,11,9,7,6,8,11,13,12,8,7,8,8,7,9,9,10,9,8,7,9,9,8,12,14,14,13,13,13,11,13,13,14,10,11,13,12,9,6,7,5,7,7,9,11,9,9,9,12,11,10,10,11,11,8,8,10,9,9,10,12,10,7,9,8,6,5,5,4,6,9,10,11,14,14,12,10,9,11,11,10,9,8,7,8,10,13,11,11,10,8,10,9,9,10,12,12,11,9,8,9,10,11,11,11,10,13,17,22,20,14,10,11,10,9,12,11,10,9,9,11,10,9,9,10,10,8,8,7,9,9,11,12,11,11,11,9,9,10,9,7,7,8,9,8,7,8,12,7,4,5,6,8,10,13,14,13,12,13,10,9,11,9,8,9,8,8,7,6,8,10,9,10,12,12,12,12,13,14,12,14,16,14,15,13,11,12,11,8,13,13,11,10,11,9,9,10,10,9,11,11,13,13,13,13,13,14,13,13,13,13,13,11,11,14,14,14,12,14,11,13,14,12,11,12,14,16,16,14,15,15,13,13,15,15,14,15,13,13,13,11,12,13,13,13,13,14,15,14,14,13,12,13,14,15,13,12,15,15,14,14,14,14,13,13,13,13,12,14,16,16,13,10,10,10,11,12,13,12,10,11,12,10,10,13,12,10,11,11,11,10,11,12,12,13,16,18,19,17,15,15,15,15,14,17,14,12,13,14,14,13,13,13,15,13,13,14,13,13,13,13,13,14,14,13,14,14,15,16,17,16,16,16,16,15,13,13,14,14,12,12,13,12,13,13,14,15,15,16,16,16,16,14,12,12,12,12,13,16,16,15,16,17,17,16,14,14,14,14,14,15,15,15,15,15,16,17,17,15,16,16,16,15,15,14,16,14,16,17,15,16,17,16,17,18,17,15,15,16,15,15,15,14,15,16,16,16,17,15,14,16,17,18,18,17,16,13,16,18,16,15,15,16,16,15,14,14,14,15,15,13,14,14,14,16,16,15,15,14,11,14,13,13,12,12,13,14,13,13,13,12,13,13,13,12,12,12,12,12,12,12,12,13,14,17,14,7,6,8,8,17,19,17,13,12,12,10,12,13,14,14,15,15,13,13,14,13,12,10,11,11,9,10,10,10,10,10,10,9,9,11,11
147,145,146,145,146,145,147,148,150,148,147,148,155,163,169,171,173,175,174,173,171,170,168,167,166,166,167,166,166,167,166,164,161,161,152,153,173,200,198,171,163,165,156,151,148,147,148,148,146,146,143,143,144,143,146,144,141,142,142,142,142,143,141,141,142,143,139,136,137,136,135,135,136,137,135,135,134,132,130,129,132,134,133,134,132,131,131,131,132,133,131,131,131,129,129,129,130,129,129,128,129,128,125,127,126,124,125,126,125,123,123,126,126,125,123,124,123,123,123,122,120,121,121,121,119,118,118,117,117,118,118,116,116,116,117,115,111,112,112,114,111,109,109,111,111,114,112,111,110,111,112,109,106,107,108,108,105,107,107,107,108,108,108,109,110,110,111,112,113,114,114,116,116,117,117,117,117,117,119,118,119,118,115,115,116,112,110,110,109,109,110,112,110,109,113,113,111,113,113,114,114,114,114,114,115,117,118,119,118,118,116,111,106,100,97,96,94,94,100,110,125,132,143,152,160,171,183,193,203,205,202,198,202,204,206,214,212,204,194,173,161,163,166,176,178,155,152,158,164,174,177,186,204,221,220,202,191,205,215,212,196,180,164,149,136,126,123,126,128,125,126,130,137,146,165,175,179,168,158,156,158,162,158,148,149,161,161,155,156,156,149,141,134,127,117,109,101,94,90,84,81,79,75,74,71,70,69,66,64,62,62,57,59,62,62,62,61,61,60,62,61,60,59,58,62,60,59,56,56,58,57,56,56,55,54,54,54,55,55,54,51,51,51,50,52,53,53,50,52,51,53,53,52,51,53,50,49,48,49,48,48,49,49,50,47,47,50,47,45,45,46,47,46,45,46,45,43,44,45,44,43,41,42,41,41,41,40,41,42,43,43,40,40,41,40,41,40,41,42,42,41,42,41,39,39,40,40,40,39,33,34,36,37,38,36,37,37,35,35,37,36,36,36,35,34,35,35,35,36,34,33,34,34,34,34,33,33,32,31,33,34,34,34,32,31,29,30,31,31,33,34,32,31,31,32,33,29,27,29,29,29,30,31,31,29,29,27,28,29,26,26,28,29,29,28,29,29,29,33,31,29,27,28,25,25,24,25,24,24,25,24,23,24,25,26,25,26,25,28,27,27,25,23,21,22,21,22,24,23,23,22,23,23,23,24,22,21,21,23,24,25,23,22,23,22,22,24,24,22,22,21,20,20,20,22,22,23,21,19,18,19,19,18,19,17,18,18,19,17,16,16,18,17,16,17,18,17,15,15,14,16,15,13,14,13,14,13,14,14,17,16,16,13,13,13,13,12,14,15,16,14,14,14,14,13,15,14,15,13,12,10,12,11,11,12,15,14,12,12,12,11,11,10,11,10,9,9,8,8,9,9,10,10,10,8,9,9,10,9,6,6,6,4,7,9,7,4,4,7,5,7,7,10,10,9,7,6,6,9,10,11,12,11,11,11,11,10,11,9,11,10,9,11,8,10,12,14,14,14,13,10,12,12,16,18,15,13,15,14,13,13,13,13,11,12,14,13,13,14,13,12,12,11,13,14,12,12,12,12,12,10,8,8,8,9,10,8,8,8,8,12,12,11,9,8,9,11,10,11,10,9,11,11,11,10,9,9,9,10,12,12,12,12,11,12,10,11,11,12,15,13,12,9,10,10,9,9,10,11,12,11,11,11,11,13,12,10,9,9,9,10,9,10,12,11,10,10,11,10,7,6,7,6,7,9,9,12,12,12,14,13,11,10,13,11,11,10,10,11,10,11,11,12,12,11,10,9,11,11,11,10,9,8,8,10,11,10,10,10,10,11,11,12,12,13,12,7,7,8,10,10,10,11,10,10,8,7,8,10,11,11,8,7,8,10,10,11,11,12,13,9,8,9,10,8,7,6,7,9,9,8,7,5,3,3,2,5,7,8,11,13,12,13,11,9,8,8,9,8,7,8,8,8,8,7,10,12,14,12,12,14,13,12,12,12,12,11,12,12,11,10,9,9,10,9,10,12,9,8,10,10,10,10,12,10,11,13,12,11,13,12,12,14,14,13,12,14,15,14,12,14,13,13,14,14,14,13,14,14,16,16,18,16,16,14,14,13,13,12,14,13,14,12,13,12,13,12,12,13,15,15,15,16,14,14,14,13,15,15,15,14,15,14,14,14,14,14,13,14,14,12,13,14,14,13,11,12,12,12,11,10,12,12,12,13,13,11,11,12,12,12,11,12,11,9,10,11,12,14,17,19,18,17,15,13,13,16,15,15,12,13,17,15,13,13,13,13,14,11,13,15,14,13,13,13,13,15,14,13,13,14,14,15,15,16,16,16,16,16,16,14,14,13,12,11,12,12,14,13,14,16,16,14,16,16,16,16,14,14,12,13,14,16,16,16,16,16,17,17,16,14,15,16,17,17,16,15,16,15,16,18,18,17,17,18,18,17,17,17,16,15,15,16,16,16,16,17,17,17,16,16,15,15,16,15,14,15,16,15,15,15,14,16,16,17,17,17,17,18,17,16,15,16,16,17,15,16,17,15,14,13,14,14,14,14,14,14,16,14,14,13,11,12,14,13,15,14,13,13,14,14,13,13,13,13,13,13,13,13,13,12,13,13,11,11,12,11,13,15,13,7,7,8,10,16,18,18,15,14,15,14,15,17,17,18,18,19,14,11,11,11,12,11,12,13,11,9,10,9,9,9,10,9,9,11,9
147,146,146,146,146,146,148,150,149,147,153,168,172,174,174,175,174,173,173,172,170,168,168,166,166,166,164,166,169,170,166,166,163,159,152,157,186,214,197,181,186,178,162,154,149,147,146,146,146,145,147,146,144,145,146,143,143,141,141,142,141,141,141,141,138,139,137,136,139,138,137,137,135,135,136,135,135,135,132,131,131,133,131,130,129,129,130,128,128,132,131,130,130,129,131,130,130,130,128,127,129,128,125,125,123,123,125,125,126,121,121,124,124,123,124,124,123,122,122,121,122,121,121,121,120,119,119,118,118,117,116,115,115,117,117,114,113,112,113,112,111,112,113,112,113,115,115,113,111,111,112,109,107,108,109,108,106,106,105,108,111,110,108,109,112,112,112,112,114,115,114,115,115,116,116,116,116,117,119,116,115,115,113,113,113,112,111,110,110,110,111,109,105,109,115,115,114,113,114,114,113,113,115,117,119,119,119,120,120,120,118,114,104,103,99,95,94,95,99,111,121,127,135,149,162,171,184,196,196,196,201,202,204,208,212,218,219,209,192,177,176,191,195,199,190,163,162,171,180,193,199,201,211,225,231,227,222,225,226,214,190,165,150,138,130,130,134,138,137,134,133,131,135,153,170,177,163,145,132,120,116,115,115,117,119,130,127,121,121,125,124,116,115,122,122,118,114,101,92,90,88,88,89,83,77,73,66,65,64,64,63,61,59,61,60,62,61,59,60,60,59,60,62,61,58,59,61,63,61,58,57,58,56,56,57,56,57,56,54,53,53,52,51,52,50,51,53,52,51,52,53,51,51,51,52,53,52,50,49,47,47,47,47,47,47,47,46,45,46,45,45,47,47,45,46,47,45,43,45,45,43,42,42,42,42,43,42,42,43,43,44,43,39,36,38,41,42,42,42,42,41,41,41,40,39,39,40,40,39,37,38,35,37,39,38,37,37,35,35,35,37,38,37,35,36,35,32,31,34,34,35,36,34,34,33,33,33,32,33,32,32,33,33,32,30,30,31,31,35,35,33,31,32,32,33,33,30,29,31,30,31,30,29,31,29,29,29,31,29,30,30,30,29,30,30,30,28,28,29,29,30,29,29,26,26,25,24,22,25,25,22,18,21,24,26,26,24,24,24,25,24,23,23,24,24,23,23,23,21,22,22,23,22,24,25,24,22,24,25,24,24,25,25,23,23,23,23,21,21,19,19,19,19,19,20,21,21,22,20,19,19,19,18,18,18,18,17,15,16,17,16,16,18,19,19,17,18,18,17,18,18,17,14,14,13,13,14,15,15,15,14,15,17,16,12,13,12,13,13,13,14,15,15,12,11,10,11,13,11,11,12,11,11,11,13,13,12,10,11,13,12,12,12,12,12,11,10,10,10,9,10,12,11,11,10,9,8,6,8,6,7,7,7,6,5,10,10,8,7,5,7,7,6,8,7,6,7,7,9,12,10,12,12,10,9,11,11,11,13,12,13,12,9,8,7,5,9,11,12,12,12,11,11,14,15,12,12,12,11,10,12,13,12,11,13,13,15,14,12,11,10,10,11,13,13,13,11,12,12,12,10,11,9,9,8,11,10,10,9,8,9,12,10,9,9,9,11,11,13,11,10,11,9,9,12,12,11,9,8,10,12,14,12,10,7,10,10,9,11,13,10,10,10,9,11,13,14,13,12,11,11,12,12,12,12,11,12,12,11,10,9,7,9,10,10,10,12,12,10,7,6,6,6,8,10,8,11,8,10,13,14,13,13,16,14,14,13,11,11,11,10,12,10,9,9,8,9,11,12,13,11,10,10,10,12,12,11,11,12,11,11,13,12,13,13,10,9,11,9,10,10,11,10,9,9,9,10,10,10,10,8,8,8,10,13,11,11,12,13,13,12,11,10,8,7,9,8,7,8,8,8,7,4,4,4,6,4,6,7,10,13,13,11,11,9,6,7,6,6,7,9,9,8,7,7,10,12,11,13,13,14,13,11,12,14,13,12,11,11,9,11,13,12,10,9,10,12,12,10,11,10,9,11,12,11,11,12,12,12,14,12,12,15,13,13,12,13,14,14,11,14,15,15,12,12,12,14,17,17,15,17,17,18,17,16,14,13,14,16,14,13,14,15,14,13,13,11,12,13,15,15,15,14,13,13,14,14,14,15,17,15,14,13,13,14,14,13,12,11,12,12,13,15,15,12,11,12,12,13,11,9,10,12,13,14,12,12,11,11,12,12,11,11,12,11,10,12,13,14,18,19,20,16,13,11,10,14,15,14,14,15,14,13,13,13,12,13,14,14,13,14,15,14,14,13,13,13,14,14,12,14,13,14,14,16,17,17,16,16,15,14,15,15,14,15,14,13,15,14,14,14,15,15,14,15,16,15,16,17,19,17,18,17,15,15,16,17,17,17,18,16,16,18,17,15,17,16,18,17,17,16,16,16,16,16,15,15,16,17,15,15,16,16,17,17,16,16,16,16,15,16,17,16,16,17,16,14,14,15,16,16,16,16,16,15,15,16,15,17,17,16,16,17,16,16,15,15,15,15,16,15,14,17,17,15,14,16,16,14,15,15,13,12,14,13,13,12,13,15,15,14,13,14,13,13,12,13,12,13,12,12,13,13,12,12,13,12,12,13,13,7,9,9,10,15,17,20,21,17,17,16,16,14,14,15,16,16,11,12,12,10,10,10,11,10,11,12,12,11,11,10,10,11,12,9,11
149,149,150,149,150,149,149,150,153,163,174,177,176,175,175,175,174,173,171,171,170,169,168,167,166,165,166,166,167,165,164,163,163,164,160,167,191,216,211,205,194,177,169,165,156,147,144,146,145,145,146,144,144,146,147,145,143,142,141,141,138,138,137,137,139,139,138,136,137,136,135,135,136,137,137,134,132,134,135,131,130,132,132,132,130,127,129,130,131,131,129,128,129,129,130,129,128,127,126,127,128,126,127,126,124,125,124,123,122,123,124,124,124,123,123,122,123,122,122,121,122,121,121,121,121,120,118,115,117,117,116,114,115,117,118,120,119,114,113,113,110,111,115,114,112,110,114,115,113,113,112,111,110,108,108,109,107,107,107,108,109,113,114,112,110,110,112,113,113,113,114,114,115,116,118,118,117,115,115,116,114,113,114,113,114,114,113,111,112,115,115,114,110,111,114,115,114,115,115,114,115,114,115,117,118,119,119,120,121,119,120,118,111,103,99,98,96,96,100,113,123,127,133,142,155,164,180,194,192,199,200,197,195,205,213,221,223,213,196,185,190,203,210,206,189,167,177,192,193,197,201,209,221,232,238,236,228,219,216,205,184,166,152,138,134,139,143,149,151,150,140,135,144,162,176,169,150,143,132,119,109,102,99,94,91,92,95,91,88,87,90,93,95,93,91,90,89,84,74,72,70,73,78,82,83,73,66,62,62,62,62,61,60,57,53,59,59,59,59,60,61,62,62,62,60,59,59,61,61,59,59,58,56,55,55,55,56,55,52,54,53,53,55,51,48,50,56,57,49,51,49,51,51,54,53,51,52,50,49,48,47,46,47,47,48,46,45,44,45,46,45,46,47,46,46,46,43,44,46,43,42,42,42,41,41,42,42,42,42,41,40,39,38,39,42,43,42,43,42,41,41,40,41,40,38,37,39,40,38,37,38,36,38,37,36,36,36,37,38,36,35,36,36,35,36,36,34,36,35,35,35,33,33,32,34,35,34,33,36,34,32,33,32,31,32,32,33,33,33,34,33,31,30,31,32,32,32,29,31,32,31,30,30,31,33,32,30,30,30,30,29,29,29,30,29,29,29,27,27,28,28,26,26,29,27,25,24,25,24,24,23,23,23,23,23,25,26,26,26,27,26,23,22,24,24,24,26,22,22,23,23,23,23,24,24,24,24,27,25,23,22,23,25,26,24,21,20,20,22,21,21,21,19,18,19,20,20,19,20,19,17,17,17,17,19,18,18,17,17,18,18,18,19,17,16,16,18,16,17,19,19,17,16,16,16,15,17,15,13,12,13,15,16,13,12,14,12,14,15,16,16,16,13,13,13,12,10,12,10,12,13,11,12,10,12,10,10,13,15,15,14,13,13,11,11,10,10,10,10,8,9,11,12,11,9,9,9,9,8,9,7,6,4,6,8,7,11,11,9,8,11,12,8,5,6,5,7,9,8,9,8,9,9,11,10,8,9,8,9,12,14,12,12,10,8,7,5,7,9,12,12,10,12,14,11,12,10,12,12,10,11,11,12,11,11,10,11,13,12,10,9,10,11,11,11,14,15,11,12,12,10,10,8,9,9,9,10,12,9,10,10,9,10,12,10,10,13,11,12,12,13,11,9,8,10,11,11,9,7,9,11,11,12,10,11,9,10,12,10,12,11,8,8,8,10,11,13,13,11,11,12,12,13,12,12,12,12,11,9,8,9,8,7,6,9,9,9,10,8,6,5,6,5,6,7,6,5,8,10,10,11,12,12,13,11,12,12,12,11,11,12,12,11,12,11,8,10,10,12,12,12,11,11,10,11,11,11,11,11,11,11,13,13,14,11,10,11,12,9,10,10,10,10,10,10,8,8,9,9,9,8,9,8,10,10,10,10,12,12,12,13,13,12,10,9,8,7,7,7,9,9,8,5,6,6,6,5,3,5,10,14,12,10,7,7,6,5,5,7,6,8,6,9,10,7,8,11,13,13,14,13,13,12,13,12,11,11,10,11,11,10,10,10,10,11,9,11,12,12,12,10,9,8,9,9,12,13,14,13,14,14,14,13,12,12,12,12,13,14,12,14,15,14,13,12,12,13,15,15,16,17,18,19,16,15,13,14,16,15,15,14,14,15,15,16,13,13,13,13,16,14,14,13,13,14,14,13,13,15,15,14,14,14,14,14,12,13,11,12,13,13,12,12,11,12,12,13,13,13,13,12,12,12,14,13,13,13,13,13,12,12,10,10,10,10,11,13,12,12,18,19,16,12,11,13,13,16,16,15,16,16,16,16,14,13,13,13,14,15,15,13,14,14,13,13,13,13,15,15,14,14,15,16,16,16,16,16,17,17,15,15,15,15,16,15,13,14,14,13,12,13,14,15,15,15,15,16,17,18,17,17,17,17,17,17,16,17,17,18,18,17,17,20,18,18,19,17,18,18,18,16,15,16,16,16,16,18,16,17,16,17,17,16,16,16,17,16,15,16,16,16,16,16,16,17,17,16,15,15,15,15,16,15,15,15,16,16,16,17,17,16,16,16,17,15,16,17,15,14,14,14,15,15,14,15,15,15,15,13,12,13,13,13,14,14,14,15,15,14,14,13,13,14,13,14,13,12,11,12,14,13,13,13,16,13,13,13,12,12,12,10,10,10,11,13,17,18,20,19,18,15,12,12,12,12,13,12,11,12,12,12,11,13,11,10,11,12,12,12,13,10,9,11,11,11,13
150,149,149,151,150,152,158,162,172,177,179,178,176,176,173,175,174,173,171,170,170,169,170,169,165,166,168,169,167,164,164,165,166,165,163,158,163,178,196,206,198,187,185,173,154,148,145,144,144,145,144,142,143,143,145,145,144,142,140,141,139,136,136,138,138,142,140,136,136,136,138,138,138,136,135,135,133,131,131,130,132,131,132,131,131,129,127,132,132,131,129,127,127,128,129,128,128,128,128,127,126,125,124,124,124,124,124,124,123,124,122,122,122,123,122,122,121,120,121,122,120,119,122,124,122,120,117,117,120,120,121,117,117,118,117,118,119,119,119,117,113,114,115,115,111,111,112,112,114,114,113,111,110,111,109,111,110,108,108,107,111,115,115,113,111,113,113,113,113,113,115,115,117,117,118,120,120,117,114,114,116,116,115,113,112,112,113,111,112,113,112,113,114,114,117,117,114,115,115,115,116,115,115,118,120,119,118,119,119,121,122,118,114,110,103,98,97,97,98,108,115,121,131,142,156,167,177,189,198,200,196,192,193,200,211,216,221,215,203,203,208,214,213,203,177,166,186,211,216,218,222,223,223,215,216,203,196,182,178,172,164,158,148,140,142,144,148,155,159,158,149,148,155,170,178,162,151,142,132,124,117,110,105,100,95,89,85,83,81,79,77,76,75,78,73,71,71,70,70,69,69,68,68,68,72,68,64,64,65,63,64,63,60,60,58,60,60,62,61,61,61,62,63,60,60,59,57,57,59,58,57,57,57,57,56,56,55,55,54,54,52,53,54,53,53,54,52,52,52,50,49,49,50,51,52,52,52,53,52,50,48,44,46,47,49,48,47,45,46,46,46,47,47,46,45,43,43,43,45,44,44,45,43,43,42,42,42,43,41,41,41,41,40,39,44,44,43,43,43,41,39,38,37,39,37,39,42,40,40,38,38,39,38,35,33,34,37,37,35,35,36,36,35,34,34,36,36,36,36,36,36,35,34,33,35,35,35,35,35,31,30,32,34,34,33,35,35,35,34,33,35,33,31,32,31,33,30,29,31,32,30,30,34,34,31,31,30,29,28,30,31,29,28,29,28,27,30,30,28,28,28,26,29,28,25,24,24,24,25,25,24,24,26,24,23,26,27,27,27,25,24,24,22,23,23,24,25,23,23,24,25,25,25,26,25,26,23,25,26,25,25,24,22,23,23,21,20,20,21,20,20,20,20,21,21,20,21,20,20,21,19,17,17,17,18,19,19,18,18,18,18,18,17,15,16,17,17,16,18,17,18,19,17,18,17,15,16,15,16,15,15,15,14,15,13,14,14,14,16,17,17,16,14,15,13,10,10,10,11,12,13,13,11,9,12,11,14,17,13,13,13,13,13,11,9,9,9,9,11,10,11,10,9,8,9,11,11,12,8,10,10,9,11,11,11,10,9,8,9,12,12,8,6,6,7,6,6,7,6,6,7,10,11,10,8,9,7,7,7,10,12,13,13,13,11,8,6,9,9,10,9,8,11,15,14,15,16,15,13,14,11,11,12,11,11,11,11,13,14,11,10,9,11,10,10,12,14,12,11,12,12,11,9,11,12,9,10,10,10,11,10,9,12,12,8,10,12,13,14,13,13,9,7,9,8,8,10,9,7,10,10,10,13,12,10,10,10,11,11,11,10,9,9,9,10,8,9,9,9,9,9,11,11,11,12,12,11,10,8,8,9,9,10,7,7,7,10,11,8,8,9,8,7,8,6,7,7,7,9,9,9,8,10,11,12,14,14,11,10,7,10,12,11,10,9,8,9,11,12,12,10,10,11,11,9,10,10,10,9,10,12,12,13,13,13,10,10,11,10,11,11,10,11,12,11,8,10,9,10,9,9,9,11,10,7,8,11,10,11,11,13,13,13,11,13,10,9,8,7,9,9,9,8,7,6,4,4,5,6,8,12,13,10,8,8,8,6,6,7,6,5,6,10,10,7,8,9,12,11,14,12,12,12,12,11,11,10,7,9,9,10,12,13,12,11,11,11,10,10,10,10,10,9,9,10,10,12,15,14,15,14,15,14,12,12,12,11,12,13,13,14,13,14,15,13,12,12,12,13,17,18,18,17,16,17,16,15,13,14,17,17,15,15,15,14,14,14,14,13,14,13,13,13,13,14,14,14,13,15,14,14,13,15,15,13,13,14,13,13,13,14,13,13,10,12,14,9,11,12,11,11,11,10,11,12,12,12,13,12,11,11,11,11,10,9,12,12,12,12,15,18,17,14,13,13,13,15,15,15,14,13,13,16,15,14,15,13,13,14,15,14,13,13,12,14,14,14,14,15,15,15,16,15,16,17,18,18,17,16,16,16,15,14,14,13,13,14,14,13,13,12,12,13,15,15,15,16,18,18,17,17,17,17,18,19,19,18,18,17,17,18,18,18,18,18,16,17,18,18,17,16,15,15,17,17,17,18,17,17,16,17,16,17,16,18,16,16,16,17,17,17,16,16,16,16,15,16,16,15,14,15,14,15,15,15,16,17,17,16,15,15,17,17,16,17,16,16,15,15,16,16,16,15,16,15,15,14,15,13,12,11,13,13,13,15,15,15,15,16,14,13,12,14,13,12,12,13,13,13,14,14,13,13,14,12,12,13,15,15,14,10,9,11,15,14,16,15,16,17,14,14,13,12,12,12,13,12,12,12,14,12,12,12,10,10,12,13,13,12,11,11,12,12,12,11,13
153,155,158,159,161,170,176,179,180,180,180,178,177,176,175,175,175,172,172,172,173,170,170,170,169,165,167,169,168,168,167,165,166,166,165,158,149,151,163,176,193,198,186,163,150,148,147,144,144,145,143,143,143,143,142,141,142,143,140,139,138,139,138,138,137,139,138,136,136,137,136,137,135,135,134,136,135,132,129,130,133,133,130,131,131,132,131,131,132,132,129,129,129,130,129,128,128,127,128,127,125,124,123,125,126,124,125,124,124,124,124,123,122,124,121,121,121,122,123,122,123,124,123,123,123,120,118,118,119,119,116,118,118,118,120,118,119,121,119,114,114,116,116,117,117,119,118,116,113,113,115,113,112,112,108,109,109,109,111,112,113,116,115,115,112,113,113,114,116,116,116,116,116,118,118,119,119,117,115,114,116,116,114,114,113,113,113,112,112,112,111,112,116,116,117,117,116,117,117,116,115,115,117,120,121,120,118,119,120,123,122,119,115,113,105,98,98,97,98,108,123,132,138,148,155,165,174,180,185,185,189,191,190,192,197,199,204,204,208,219,226,224,210,193,178,174,178,194,214,224,231,235,222,199,182,169,163,157,156,151,146,141,139,144,151,157,162,172,181,175,164,160,161,166,164,159,153,147,140,132,121,113,106,105,105,96,91,89,89,87,80,76,72,72,71,69,70,70,69,68,69,69,68,68,69,65,62,64,63,64,63,62,62,63,62,63,63,63,62,61,60,61,62,62,60,59,60,58,57,56,57,57,56,57,58,56,54,54,55,55,53,55,56,54,54,49,48,48,48,48,48,49,50,52,51,51,51,50,50,47,45,44,46,49,50,48,49,47,47,48,47,46,47,46,45,44,44,45,42,41,41,44,43,46,44,43,41,41,42,42,42,41,41,40,39,40,42,41,40,41,41,38,38,39,39,38,39,39,38,39,38,39,40,38,35,35,37,36,36,35,37,34,35,36,36,37,36,36,37,37,36,36,35,34,35,35,33,34,36,32,31,32,33,35,35,35,36,36,34,34,34,33,31,30,30,31,31,29,30,31,29,29,31,32,31,32,32,29,30,30,29,30,29,28,26,27,30,28,27,27,26,25,26,25,26,25,25,24,26,30,26,24,24,25,27,26,25,27,24,25,24,24,25,23,21,23,22,24,24,23,24,25,25,25,25,23,23,23,23,24,22,23,22,21,21,21,20,20,19,18,18,18,20,21,20,21,21,19,19,18,19,19,17,18,20,19,20,18,17,17,17,18,16,15,15,16,16,16,15,16,16,18,19,19,16,16,17,16,16,14,14,14,15,16,15,14,14,13,14,15,15,16,16,15,12,10,13,13,13,13,11,10,11,10,14,11,11,12,12,8,8,9,9,11,8,10,12,9,10,10,10,10,9,8,7,7,7,9,8,11,11,9,11,13,13,10,12,13,11,7,6,6,6,6,7,6,6,7,9,7,7,8,8,8,7,8,7,7,9,10,11,13,13,12,10,8,7,8,10,11,11,13,12,11,11,13,16,14,12,12,8,10,10,11,10,12,12,12,12,10,11,11,9,10,10,12,12,11,12,11,11,10,11,11,10,9,9,10,9,10,11,11,13,13,12,11,12,13,12,10,9,8,7,10,10,7,8,8,7,12,11,8,10,8,9,11,11,11,9,9,10,10,11,11,11,8,9,7,9,12,10,11,12,10,12,11,9,9,7,7,7,10,9,10,10,8,9,8,9,10,10,10,11,11,10,9,8,7,6,9,9,7,8,11,12,15,14,11,10,11,10,11,11,11,10,11,10,11,12,12,11,11,11,12,10,10,10,10,10,11,11,10,11,10,10,12,12,13,12,11,10,10,11,11,12,12,10,11,9,9,8,9,14,14,9,10,11,10,10,10,12,12,11,12,10,9,8,8,8,9,10,10,8,8,4,7,6,6,5,7,10,10,12,10,9,8,7,6,8,10,8,7,7,9,9,9,9,9,10,12,12,12,12,13,11,10,8,9,10,10,11,9,10,9,11,13,12,9,11,12,12,11,10,10,11,11,10,12,13,14,13,13,12,11,12,12,12,13,14,15,16,14,14,12,11,15,12,11,14,16,16,14,16,15,16,18,15,14,15,17,17,16,15,14,14,14,13,12,13,14,15,15,15,12,13,15,14,14,14,14,14,12,14,13,14,16,15,15,15,14,13,12,14,14,11,13,14,13,12,12,12,12,11,12,12,12,12,13,14,11,10,10,11,11,11,12,13,12,11,14,18,17,16,14,14,14,14,13,13,13,15,14,11,13,15,15,15,13,11,13,15,15,12,13,14,14,15,14,14,14,15,15,15,17,16,16,17,16,15,15,15,16,15,14,13,14,14,15,15,14,14,15,13,15,15,16,16,16,18,18,17,16,16,17,18,18,18,18,20,19,18,18,19,19,18,16,18,18,17,16,17,14,16,17,18,17,17,17,18,17,17,17,17,17,17,16,17,17,16,16,16,15,16,17,17,17,16,17,16,16,14,15,15,15,17,17,16,16,17,17,17,17,18,17,17,15,15,15,16,14,17,18,18,18,16,18,16,14,13,14,16,17,16,13,15,15,14,14,15,14,14,14,13,13,13,13,12,13,15,14,12,11,12,11,11,12,13,16,15,15,10,7,8,12,12,13,11,12,13,12,13,13,13,12,13,11,11,11,12,14,14,11,10,10,11,11,11,11,13,12,11,11,11,11,12,13
170,177,180,180,180,179,181,181,180,179,179,178,177,178,176,173,175,174,172,175,174,173,170,170,170,168,168,168,170,169,168,167,167,165,166,164,153,149,151,159,179,193,186,166,157,154,145,142,143,143,141,143,142,143,142,141,140,140,142,142,139,139,140,139,138,137,137,137,139,137,138,134,133,132,133,134,132,132,132,131,131,132,131,131,130,131,132,132,131,131,130,129,128,129,129,128,128,128,128,126,127,126,125,124,126,128,126,123,123,124,124,123,124,125,124,123,124,125,126,124,124,123,123,123,123,122,123,122,120,121,118,117,113,115,121,119,116,115,115,115,117,118,118,118,118,116,116,116,117,113,111,114,111,111,112,110,110,112,113,113,116,116,115,116,116,116,115,114,114,114,115,116,116,117,117,117,116,115,115,117,118,117,115,115,116,115,115,115,114,111,112,114,113,116,117,118,117,117,116,116,117,116,116,117,118,120,121,120,120,121,121,116,114,117,113,102,98,99,101,115,130,137,140,149,154,163,169,173,176,178,180,178,174,179,183,186,192,197,203,219,227,220,206,197,200,198,193,199,214,225,241,249,235,212,185,178,180,180,175,165,156,145,146,152,164,175,183,190,188,179,168,155,144,140,138,144,147,136,136,135,125,117,117,115,109,103,104,101,93,87,81,79,74,71,69,68,70,70,69,69,70,70,68,67,68,66,62,63,65,64,65,66,65,65,64,63,62,62,61,60,60,60,62,63,62,62,60,58,59,57,55,56,54,54,55,55,54,55,56,58,54,54,53,54,54,50,48,49,49,50,49,48,50,51,50,50,48,49,50,50,48,49,49,49,50,50,48,47,47,47,47,46,46,45,46,44,44,45,45,45,44,44,46,46,44,42,42,42,42,42,41,42,43,41,38,38,40,39,41,40,39,38,42,43,40,40,40,39,39,38,38,38,39,39,37,37,36,37,36,36,37,35,35,38,39,38,39,37,37,36,35,34,33,36,37,37,36,35,35,33,32,31,31,33,35,35,34,35,35,31,31,32,31,30,29,31,34,31,31,30,27,29,28,30,29,29,26,26,26,26,28,27,28,28,28,29,30,28,28,27,27,25,26,26,25,25,24,23,24,26,26,25,25,25,25,26,24,25,23,25,25,24,24,24,22,23,22,23,23,25,26,27,27,25,26,24,23,21,22,22,22,23,22,23,20,18,19,18,19,20,19,18,19,19,18,19,19,17,19,22,22,20,19,19,19,19,18,18,18,19,17,16,16,15,16,17,15,16,17,16,16,16,20,23,21,17,15,15,14,15,15,14,14,15,16,17,14,13,15,15,15,15,13,13,16,12,11,12,14,11,10,10,14,16,16,14,10,9,8,7,8,7,9,7,6,10,10,7,8,9,10,9,7,9,9,7,9,9,5,8,12,10,7,8,7,4,8,12,11,5,4,6,7,6,5,6,5,6,6,7,7,6,7,6,7,7,6,8,9,9,9,11,11,10,10,11,9,7,7,8,8,9,9,13,14,13,12,10,10,11,9,9,9,10,11,13,11,10,10,11,11,11,13,12,10,11,10,10,10,11,10,10,8,9,11,9,11,11,9,11,13,14,13,11,12,10,10,11,11,10,9,8,9,10,10,10,11,10,9,12,11,12,13,11,9,11,12,11,9,8,8,12,12,11,11,9,10,11,13,14,13,11,11,11,12,11,12,11,11,10,9,10,10,11,10,10,9,8,9,10,10,9,11,11,9,9,10,9,7,5,6,7,8,8,11,14,13,13,13,13,11,11,11,11,10,12,11,10,10,11,11,12,10,11,11,10,11,11,11,13,13,12,12,11,10,10,12,14,12,11,10,11,10,9,9,10,9,9,10,11,9,10,12,11,11,11,10,10,11,11,13,10,12,11,8,7,6,9,9,10,10,9,9,8,8,7,7,4,3,5,8,8,8,10,11,12,8,9,9,10,10,7,7,9,9,9,9,9,9,11,13,14,12,9,11,9,10,11,9,9,10,10,11,10,11,10,11,9,11,11,10,10,9,10,9,10,10,10,11,12,14,14,13,11,13,13,11,13,13,12,12,12,11,13,14,11,9,9,11,13,15,15,17,16,16,15,16,15,15,17,16,16,15,13,14,15,15,13,13,14,13,14,15,14,12,13,12,14,13,14,13,13,13,14,15,16,15,14,14,14,13,13,15,15,11,12,11,13,14,13,13,14,14,15,14,12,11,11,13,12,10,11,13,13,13,13,13,14,14,13,14,12,12,12,12,13,14,14,14,12,13,13,13,15,16,16,14,14,14,13,14,15,16,16,15,12,13,15,14,15,16,16,15,14,14,15,16,16,15,16,15,16,16,14,14,14,15,15,16,14,16,16,15,14,15,15,16,16,16,15,16,17,17,17,17,18,18,19,19,18,18,17,19,20,18,18,17,18,18,18,16,16,17,17,17,17,18,18,18,18,17,17,18,18,17,17,18,18,17,18,18,17,17,16,16,17,17,16,16,16,16,17,16,17,19,19,17,17,17,16,16,17,17,16,16,15,16,16,13,14,17,17,16,19,17,17,14,13,14,14,16,17,16,15,15,16,15,15,16,15,14,15,15,13,12,13,13,12,13,13,13,12,12,12,11,12,12,13,13,13,10,7,7,8,9,9,10,12,14,13,12,13,12,12,13,11,11,13,12,12,13,13,12,10,11,12,11,11,12,11,11,12,12,12,14,12
181,182,182,183,183,182,182,181,181,179,178,178,177,177,175,175,174,173,172,171,171,170,170,169,169,170,169,170,171,169,168,167,165,164,165,164,162,153,150,167,187,199,196,183,175,160,150,146,143,142,142,142,142,142,142,141,140,140,139,141,139,140,139,136,137,138,139,137,136,138,138,136,135,134,134,133,131,132,132,131,131,129,127,129,129,128,129,130,131,132,131,129,130,129,128,128,129,128,127,126,126,126,127,126,128,128,126,126,125,126,127,129,128,125,126,126,127,127,123,127,129,128,124,121,120,122,124,122,120,119,119,116,113,118,122,121,115,115,120,121,119,118,118,117,118,117,119,119,114,113,112,112,112,115,115,114,114,114,116,116,116,118,117,116,117,115,115,115,114,114,115,117,116,119,118,119,119,116,117,116,118,117,114,114,114,115,116,115,115,114,115,116,115,117,116,117,116,114,117,118,118,117,116,118,122,121,121,121,122,121,119,118,118,118,117,109,103,102,102,110,120,130,135,142,148,149,160,170,168,167,162,160,161,169,176,182,187,191,200,212,221,226,225,221,229,229,225,221,224,229,245,255,234,208,203,208,217,218,202,178,158,149,151,156,170,185,191,177,164,159,156,148,134,120,118,126,133,125,122,130,125,126,132,125,119,114,106,100,92,85,78,73,73,73,70,69,68,69,69,69,70,70,68,67,67,67,64,65,66,64,65,65,64,65,64,63,63,60,58,59,60,61,61,61,61,62,60,58,59,58,57,57,55,53,52,54,54,53,54,56,55,57,55,54,52,50,49,50,51,51,51,49,50,52,50,49,48,51,52,48,50,51,50,48,49,47,46,47,48,48,46,46,47,45,44,43,47,47,46,46,44,44,46,46,45,41,40,42,41,41,40,40,41,41,38,39,42,38,39,40,41,40,40,40,41,40,40,40,39,40,40,39,39,37,35,37,38,38,38,36,36,35,35,37,38,38,39,38,35,35,35,35,34,35,36,35,36,36,34,34,32,30,30,33,34,33,31,31,31,32,31,33,33,34,33,33,33,31,31,31,26,27,33,33,25,26,26,26,26,26,29,29,28,28,28,27,28,26,31,33,28,26,26,24,27,31,25,23,25,25,27,26,25,27,26,25,25,25,26,25,26,25,23,23,24,24,24,24,25,25,26,27,26,25,24,22,22,23,22,22,22,22,21,22,21,21,21,20,20,21,20,19,20,18,18,18,18,20,21,22,21,20,20,19,18,17,17,16,18,19,19,17,16,17,15,17,18,18,18,16,16,16,18,23,24,21,18,17,17,16,15,14,14,15,15,16,16,15,16,15,14,12,14,16,15,12,13,11,10,14,14,13,11,11,13,14,12,12,11,9,10,10,9,8,9,10,10,8,9,9,9,8,8,7,7,9,11,10,9,8,9,7,6,5,6,4,4,7,7,7,8,7,7,8,6,8,7,7,7,6,7,7,6,5,6,7,8,8,8,8,8,10,10,10,10,10,9,7,7,6,9,8,8,9,11,8,8,8,8,9,9,7,10,11,11,13,10,9,8,11,11,10,10,12,11,10,11,10,8,8,8,10,12,12,11,9,10,11,10,12,14,13,13,11,12,10,8,8,8,8,8,9,10,9,11,12,13,12,11,10,10,8,9,11,11,11,11,13,12,10,10,11,9,9,11,12,11,13,14,14,11,8,8,11,13,13,14,14,13,12,12,10,8,10,10,9,10,11,10,11,10,11,12,10,8,9,10,8,9,7,6,6,7,8,9,10,9,11,13,11,11,11,9,9,9,10,11,11,11,11,10,10,10,13,12,11,12,11,11,12,11,12,11,11,11,12,12,12,11,11,12,10,9,9,10,9,9,11,11,8,9,9,10,9,9,11,11,10,10,8,11,14,12,9,9,9,10,11,10,9,9,9,10,8,9,10,8,7,3,7,8,3,5,8,10,12,10,8,7,6,8,9,12,12,11,11,9,9,8,10,12,14,10,9,10,8,10,11,10,10,11,10,11,11,11,8,9,11,11,11,11,10,12,11,11,12,11,10,10,11,13,11,11,12,11,10,10,13,12,13,13,13,12,12,12,10,7,11,11,13,15,16,19,19,15,16,16,19,18,16,15,15,13,12,15,16,16,15,15,13,13,14,13,12,13,12,11,15,15,14,13,14,14,15,16,16,15,15,14,15,14,13,14,17,16,12,12,13,13,14,16,14,13,14,14,13,12,12,13,13,14,13,13,13,12,10,11,12,13,12,12,13,13,12,12,12,11,12,14,13,13,14,13,14,15,14,14,15,14,13,14,15,14,14,15,13,14,14,14,14,14,15,15,14,15,16,15,15,16,16,16,17,14,13,14,14,13,15,14,13,14,16,16,15,15,14,16,17,16,16,17,17,17,17,18,19,19,18,19,17,16,17,18,19,20,19,18,20,21,20,21,20,18,19,18,18,18,18,18,18,17,16,18,17,16,17,18,17,16,16,16,16,17,17,17,18,17,15,16,17,17,18,19,19,20,19,17,16,16,18,17,18,17,17,17,16,16,16,16,16,15,16,16,17,17,19,16,13,13,14,14,14,16,16,15,16,16,16,16,15,15,15,15,13,13,14,15,13,12,13,13,15,13,13,12,13,12,12,13,12,11,7,6,6,8,7,10,11,12,14,13,13,12,13,14,16,14,14,13,13,14,15,13,11,10,13,13,10,13,13,12,12,12,11,11,12
181,181,181,182,182,179,180,181,180,179,177,177,177,178,178,176,175,173,173,172,172,170,170,171,170,170,172,170,169,169,168,168,166,166,165,165,165,158,150,169,189,186,188,188,178,159,153,151,149,143,140,141,142,144,144,141,140,140,137,140,141,139,137,137,136,136,137,137,136,138,136,135,136,135,134,133,132,132,134,131,132,130,127,128,129,129,128,128,130,130,130,130,129,129,128,128,130,130,129,127,126,129,129,127,124,126,127,126,127,128,127,130,131,122,122,125,125,127,125,126,130,128,126,125,125,123,124,120,119,119,117,117,115,116,120,116,115,120,122,122,121,119,117,118,120,117,119,117,115,114,113,113,116,115,116,115,115,116,117,117,118,119,116,117,116,116,115,115,116,117,117,116,115,118,119,118,117,118,117,118,120,118,119,117,116,118,117,118,116,117,116,117,117,116,115,115,116,116,117,118,117,116,118,119,122,122,123,123,122,121,121,122,120,119,119,111,104,101,101,100,106,114,122,132,137,142,149,147,145,146,150,153,158,163,166,173,180,192,206,219,226,232,237,235,236,240,241,240,244,245,248,247,237,226,228,233,235,223,196,168,160,165,162,167,182,195,188,168,147,136,133,129,120,108,105,105,113,111,101,106,108,121,133,133,122,111,98,85,79,76,72,72,71,70,70,70,70,70,71,71,71,70,70,68,69,67,68,69,69,66,66,66,64,65,64,63,61,61,62,58,59,62,61,60,61,61,60,57,58,58,59,60,59,57,55,56,57,55,54,55,54,56,56,54,54,51,49,53,51,49,50,50,52,52,51,49,50,52,54,50,49,49,49,49,50,49,47,48,47,45,46,48,49,45,46,45,46,48,47,49,49,47,46,47,44,43,42,40,42,42,42,43,41,39,40,41,41,41,38,37,40,40,41,42,41,39,40,40,40,40,41,39,39,39,37,38,39,38,36,35,35,37,35,37,36,38,38,37,37,37,37,35,35,35,35,35,36,38,37,37,34,31,31,33,33,33,33,35,33,31,31,31,33,31,31,31,31,31,32,32,28,28,32,32,27,26,29,30,26,28,32,30,29,28,27,28,29,26,27,28,29,28,25,27,28,27,24,26,26,24,27,27,26,26,26,26,26,26,28,27,26,25,25,25,25,26,27,26,25,25,26,25,24,25,25,22,22,23,21,22,23,21,20,20,20,22,21,21,21,20,19,19,20,20,20,19,20,20,21,22,22,19,19,18,19,21,18,18,19,20,19,17,18,18,17,16,15,14,14,15,17,18,18,17,16,18,16,16,17,15,14,16,15,16,16,14,16,17,15,13,11,12,13,15,16,12,12,12,11,12,15,14,12,12,12,14,13,13,13,12,11,11,10,8,9,11,10,9,9,9,9,8,8,9,9,10,12,12,9,9,8,7,5,4,4,5,4,3,4,7,8,7,8,8,8,7,7,7,8,8,7,5,7,7,7,6,5,7,7,6,8,11,12,12,11,11,10,9,11,9,9,6,9,10,11,9,9,8,9,8,7,7,9,13,12,12,10,9,11,11,12,12,11,11,10,11,9,9,11,11,12,10,8,9,11,12,11,12,12,12,12,13,14,11,11,9,8,9,9,8,8,8,9,9,9,10,11,10,10,11,9,8,7,10,10,11,12,13,13,12,13,11,10,9,10,15,13,13,13,11,8,8,9,13,12,14,16,15,14,15,14,9,9,9,9,10,11,12,12,13,13,14,14,12,11,10,10,10,10,10,7,6,6,9,10,10,8,8,11,12,11,11,10,12,13,11,11,10,11,11,11,10,11,12,12,11,11,9,10,12,12,13,12,11,11,12,12,12,12,11,11,11,11,12,9,10,11,12,11,11,10,10,10,9,9,11,12,12,13,12,11,12,10,9,7,10,9,10,11,9,10,9,8,10,10,9,8,7,5,6,4,3,2,6,7,10,9,7,7,7,8,9,11,11,10,10,11,10,7,10,10,13,11,10,11,9,9,11,9,9,9,10,9,10,12,13,13,11,11,12,10,10,11,12,12,12,11,9,10,11,13,12,11,11,10,11,14,16,13,13,14,13,11,11,10,10,10,10,13,14,18,17,13,14,16,16,18,18,17,16,15,15,15,14,14,13,14,15,10,12,14,15,14,12,11,13,13,14,14,14,13,13,14,13,13,14,15,15,14,14,14,16,15,13,14,13,12,12,15,19,20,19,16,13,14,15,14,13,14,12,13,12,12,13,13,12,13,13,13,14,14,14,12,13,13,13,14,12,12,14,14,18,18,16,14,14,14,14,14,14,14,14,15,14,14,15,15,15,15,14,13,13,15,15,14,15,15,15,14,15,15,16,15,15,15,15,15,15,14,14,14,14,13,15,15,14,16,18,17,16,16,17,18,18,18,19,19,18,20,19,18,17,17,17,19,17,18,19,19,21,23,23,23,22,18,17,18,18,17,17,17,16,18,18,17,19,18,18,16,17,17,17,18,16,17,17,17,16,17,18,17,18,19,19,19,18,17,16,16,16,17,18,18,17,15,16,18,17,15,16,15,19,18,15,14,14,14,13,13,15,16,16,15,15,15,16,16,16,15,16,15,16,16,14,13,14,13,14,13,13,14,14,13,13,14,18,17,13,12,13,13,8,8,8,9,8,10,11,13,13,12,11,12,12,12,13,13,13,12,11,13,14,13,13,12,13,12,11,12,12,12,11,12,12,13,12
184,182,182,182,181,181,180,180,179,179,178,179,178,178,179,177,175,175,175,173,173,171,171,172,172,170,171,174,172,169,169,167,167,168,165,164,163,158,152,154,164,167,168,177,182,169,169,167,163,150,139,141,140,142,141,141,140,139,139,139,138,137,137,137,134,137,135,134,135,134,133,135,136,135,134,133,133,133,133,130,131,130,129,127,128,130,132,130,130,131,130,130,129,129,128,127,126,127,128,128,127,128,127,128,132,131,128,128,129,129,131,132,131,129,127,126,125,126,125,125,129,127,128,126,123,123,125,121,119,119,121,120,119,118,116,118,119,122,122,121,120,120,117,118,117,116,117,116,114,116,115,116,115,115,116,117,118,118,116,117,117,117,119,117,116,115,116,116,114,116,116,117,118,119,118,118,120,119,119,120,119,120,119,118,118,118,119,119,119,117,115,115,117,117,118,118,116,116,115,117,116,116,119,122,124,124,123,123,120,120,122,122,122,120,119,109,103,104,106,108,103,101,106,109,114,121,124,129,134,139,144,149,155,159,165,171,183,198,211,219,226,231,239,240,237,244,249,246,236,233,229,220,207,201,210,230,229,207,182,176,183,184,187,192,197,205,197,180,165,148,133,119,105,99,100,98,94,92,91,91,91,100,109,111,102,93,85,80,75,74,73,72,69,70,72,74,76,77,76,74,74,76,77,79,75,71,70,69,67,65,64,65,66,68,73,72,67,66,67,65,60,61,63,62,61,60,60,61,59,57,58,59,58,56,55,55,55,55,56,56,55,55,55,54,53,49,50,52,50,51,52,51,51,51,53,54,52,51,51,51,52,50,50,51,50,48,49,49,48,49,46,46,48,46,46,46,47,47,46,46,47,47,46,44,42,41,41,42,42,42,41,43,44,41,40,41,42,41,40,40,40,38,40,41,42,41,41,42,43,41,41,42,41,38,37,36,35,36,39,38,35,34,35,34,37,34,37,38,36,36,36,36,36,37,38,37,35,34,36,36,34,35,33,30,34,34,33,34,33,33,32,32,32,31,32,30,28,31,33,33,30,27,28,29,31,28,29,30,30,30,29,27,26,25,24,27,28,27,24,25,27,27,27,27,27,26,27,27,27,28,26,25,27,29,26,26,28,25,25,26,26,24,25,25,27,27,26,27,27,25,25,26,23,24,24,25,23,23,22,20,20,21,20,21,21,21,20,20,20,19,19,19,20,21,22,19,20,21,22,21,19,19,20,18,18,17,16,17,17,18,16,15,16,18,18,19,20,17,17,18,18,17,16,14,15,16,16,16,15,14,17,17,15,15,15,17,17,15,13,14,13,12,12,13,12,11,12,12,10,12,15,13,11,14,14,12,13,12,13,11,11,12,11,9,11,11,13,11,10,9,8,9,9,9,10,11,13,12,10,9,6,6,7,8,6,6,5,5,6,9,7,7,6,7,10,9,8,7,7,6,7,7,7,6,6,7,7,6,7,7,12,12,13,13,10,11,10,10,12,8,8,8,9,12,12,10,10,7,9,10,7,8,9,10,8,10,10,9,8,11,12,12,11,8,7,8,8,10,9,11,13,10,10,13,12,11,12,13,12,11,12,10,10,11,11,8,10,8,8,11,10,10,8,8,9,9,10,10,11,13,11,11,9,9,9,9,10,11,13,13,13,12,12,12,13,12,11,13,11,10,8,9,10,10,13,12,10,10,10,13,12,8,8,8,11,14,13,12,13,14,14,13,13,9,9,11,11,11,12,14,13,9,7,8,7,6,6,6,8,9,9,11,10,13,13,12,11,11,11,11,12,12,12,13,13,12,12,12,13,13,13,13,13,12,13,12,13,13,12,10,9,10,11,11,10,11,11,11,10,10,12,11,11,10,9,10,12,12,10,11,11,12,11,11,10,9,8,11,10,10,10,10,9,8,8,10,9,9,5,4,5,5,4,5,6,9,9,8,7,9,9,9,9,9,9,8,9,8,9,9,8,9,11,9,8,8,8,10,11,13,10,11,12,12,13,12,12,12,12,12,9,9,11,13,12,11,11,10,11,11,13,13,14,14,14,14,17,18,17,15,13,13,12,10,12,11,13,12,13,14,15,14,15,16,17,17,16,16,15,15,16,15,15,14,14,14,14,14,10,12,15,15,14,12,11,10,11,13,14,14,14,14,15,15,13,14,15,13,12,14,15,17,16,14,12,13,14,14,19,22,23,21,19,17,13,13,12,12,14,14,13,12,12,14,14,13,13,12,12,12,14,14,12,13,13,13,15,12,14,15,14,14,15,15,13,14,14,13,15,15,15,15,15,15,15,15,14,14,15,14,13,14,14,13,14,15,15,15,15,16,16,17,17,17,18,16,14,15,16,16,15,14,15,16,16,16,16,16,17,17,16,18,19,18,18,18,18,18,20,19,20,17,17,17,18,18,19,19,20,20,22,25,23,20,18,17,17,18,18,17,17,17,18,17,18,18,17,16,16,17,17,17,17,17,15,17,17,18,17,17,17,18,20,20,18,16,17,17,16,17,16,17,17,18,17,16,17,17,15,15,15,17,18,16,17,14,16,17,17,18,17,16,15,14,15,15,14,14,14,16,18,19,17,15,12,13,15,14,13,14,14,13,12,13,15,17,16,14,14,14,13,9,9,9,9,9,9,11,13,11,11,12,13,12,14,12,12,12,13,12,12,14,13,12,14,13,12,12,12,13,13,12,13,12,12,12
183,183,183,182,183,181,180,177,176,178,179,179,179,178,177,177,176,175,175,173,174,172,173,171,171,169,169,173,172,170,168,168,168,166,166,167,159,153,150,151,154,157,168,178,183,181,186,188,181,157,146,143,141,142,141,141,140,143,142,138,136,137,138,138,135,135,136,138,135,134,137,134,135,133,134,134,132,132,131,130,131,131,128,129,130,130,131,131,131,131,131,130,128,129,128,128,129,129,129,128,129,128,129,129,126,126,129,131,131,132,130,127,128,128,126,125,128,128,127,127,126,120,123,127,128,122,123,120,118,119,116,116,120,121,120,118,120,120,119,120,118,119,120,121,118,116,116,113,114,113,115,116,114,115,116,117,118,118,117,118,117,116,118,118,117,116,116,116,115,117,117,117,119,121,121,121,121,121,121,119,119,118,118,120,118,116,118,118,118,118,116,116,118,118,117,117,117,118,117,117,119,123,124,123,122,124,124,122,121,123,122,123,124,123,120,111,105,103,107,111,107,103,102,102,110,116,124,135,141,150,156,163,169,174,180,188,196,204,209,215,220,225,228,232,232,237,234,222,213,214,212,193,170,177,195,214,217,213,206,204,203,203,213,219,215,203,191,180,169,151,133,112,105,106,105,105,103,99,94,92,89,86,84,84,82,80,78,76,72,71,73,73,73,73,74,79,81,79,78,81,82,83,83,84,82,80,76,72,67,64,66,68,69,76,81,82,78,78,78,77,72,67,63,62,62,61,61,60,59,60,59,58,58,57,56,55,53,53,55,57,56,54,55,55,53,52,54,49,51,53,53,52,51,52,51,50,53,52,50,50,53,53,52,52,53,50,49,48,48,49,48,46,47,48,47,46,47,47,48,47,44,45,45,44,44,43,44,46,44,44,43,44,43,43,42,41,41,41,43,42,41,39,39,42,42,41,40,41,41,41,40,40,39,38,39,39,39,39,38,38,36,37,36,37,37,37,39,40,39,40,37,36,36,36,36,37,38,35,35,33,35,34,32,34,34,33,32,32,32,31,30,32,34,32,31,28,28,32,31,27,27,30,29,30,31,30,28,30,30,29,28,26,25,27,26,24,26,29,27,26,26,26,26,27,26,26,28,24,24,26,28,27,30,30,27,26,25,24,26,25,23,24,24,25,26,26,25,26,25,24,24,24,26,26,26,26,22,22,22,23,23,23,22,22,23,22,22,23,22,23,21,19,19,19,19,19,19,19,20,21,21,21,21,20,19,19,18,19,17,19,18,16,16,17,17,19,19,17,17,18,18,14,15,16,16,15,17,17,17,15,15,15,16,15,15,16,14,13,12,12,12,10,10,13,11,12,14,14,13,13,13,14,13,13,12,13,13,10,10,11,9,9,11,9,10,10,11,10,10,9,10,9,9,9,10,14,14,12,10,9,8,8,8,7,6,5,6,8,7,8,7,6,7,8,14,13,8,5,5,7,7,8,8,8,7,7,8,8,11,11,12,11,13,13,11,11,11,13,12,8,10,11,10,11,13,11,9,8,9,10,8,10,11,11,11,12,11,9,9,10,10,12,12,10,8,8,7,8,10,9,10,11,11,11,12,12,12,12,11,11,11,11,12,12,9,10,10,10,7,8,10,11,11,10,10,10,11,10,12,13,11,11,10,10,7,9,11,12,12,13,14,14,14,15,14,14,17,17,15,15,11,8,9,10,10,10,9,9,11,11,10,10,7,8,11,14,12,10,11,12,12,11,11,11,12,11,11,10,16,17,16,13,10,9,9,9,7,5,6,8,8,10,11,12,11,13,12,12,10,12,12,12,14,13,12,9,12,14,14,11,10,12,12,11,12,12,13,12,11,11,10,11,11,11,12,12,11,8,9,10,10,10,10,10,10,12,12,12,12,12,12,9,9,11,13,10,7,9,10,10,10,9,10,9,8,9,9,9,8,6,3,4,5,7,7,7,8,5,5,6,7,9,12,10,10,12,10,8,9,9,9,7,9,9,11,12,12,11,11,14,13,11,12,12,12,13,17,22,21,16,12,13,14,14,12,11,11,11,10,10,12,12,10,12,13,12,12,13,14,12,12,13,13,13,13,12,14,13,14,14,14,16,16,21,19,17,16,17,14,15,14,14,14,14,14,13,13,14,10,14,15,13,13,14,13,11,11,12,12,12,12,14,16,14,13,14,14,12,13,15,15,18,20,17,14,13,13,14,19,23,19,16,16,18,15,14,15,16,13,14,16,17,19,17,16,15,14,13,13,13,13,12,12,13,13,15,15,14,14,14,14,14,14,15,12,13,15,15,15,16,15,15,16,17,14,14,14,15,15,15,14,15,14,14,15,15,15,15,16,16,17,18,18,18,18,16,15,15,16,15,15,16,17,16,16,16,17,16,17,18,17,18,16,18,18,18,18,19,19,21,20,19,19,18,19,20,19,19,17,18,18,18,17,17,18,17,17,17,18,17,18,17,18,18,18,16,16,17,17,17,17,17,17,16,16,18,18,18,18,18,19,20,20,18,18,17,18,17,16,18,17,16,19,20,18,15,16,16,16,15,15,16,16,18,19,15,15,15,15,16,19,17,15,15,16,15,14,15,14,16,19,19,16,14,13,12,13,13,13,14,14,13,14,13,13,14,14,14,15,13,12,10,9,9,9,9,9,11,12,11,11,13,12,11,12,12,12,12,12,11,12,12,13,13,13,13,13,12,12,12,12,12,12,11,12,12
182,183,182,182,182,181,180,179,177,178,179,179,177,177,176,176,176,175,174,173,174,173,173,173,169,168,170,169,168,168,168,167,167,165,164,164,161,153,153,154,157,159,161,164,167,171,171,177,179,160,150,145,143,142,142,142,140,141,139,137,137,137,137,137,136,136,137,137,135,135,136,135,133,132,131,131,132,133,133,132,131,131,131,129,129,130,130,130,131,131,130,128,129,128,129,128,127,130,130,129,124,127,128,127,127,127,132,134,129,128,129,130,132,131,127,126,128,127,126,127,126,124,125,127,127,124,124,122,119,119,116,116,117,117,118,115,115,116,115,119,120,116,119,121,118,118,117,112,112,114,114,113,115,115,116,118,119,118,118,118,117,118,119,119,119,118,118,118,118,118,118,119,120,120,120,120,121,121,120,118,118,119,118,119,121,120,116,117,118,118,119,119,118,120,116,117,120,120,120,123,124,125,126,126,124,122,124,124,122,124,124,123,123,122,120,115,107,104,118,121,116,111,107,104,113,122,127,138,148,159,169,171,170,175,189,200,204,208,209,206,200,200,203,208,212,211,208,200,184,173,169,160,146,159,174,178,191,205,189,180,179,190,213,210,193,177,172,164,149,136,121,114,116,123,123,118,116,115,111,106,99,94,86,80,80,76,73,74,74,73,71,72,75,77,79,84,89,91,94,95,93,95,94,94,93,92,82,74,69,67,68,72,73,81,89,92,92,89,87,84,79,72,66,65,62,60,60,61,63,63,60,61,59,59,58,56,56,55,54,55,55,55,55,55,52,52,52,51,54,55,54,55,53,51,50,50,52,51,50,52,54,53,52,51,52,51,48,47,48,49,49,49,48,47,47,48,47,48,49,45,47,47,46,45,44,44,45,42,40,43,44,43,45,45,45,44,43,45,44,42,39,40,41,41,42,43,43,43,42,41,39,41,40,40,41,40,39,39,38,39,40,42,40,38,38,38,39,38,37,39,38,36,37,37,37,38,38,38,34,35,32,32,34,35,32,33,33,31,31,31,32,31,31,33,30,31,30,30,30,31,29,31,32,32,30,30,30,31,30,27,27,26,26,26,27,24,26,29,28,27,27,28,28,27,27,25,27,28,29,28,27,26,27,28,28,28,26,24,25,24,24,24,23,25,26,26,27,26,26,25,24,24,26,26,26,25,22,22,22,23,24,24,24,22,22,22,22,23,23,24,23,20,21,20,20,20,21,20,19,20,21,21,22,22,20,19,18,19,17,17,18,17,16,19,20,19,18,17,14,14,14,16,15,16,16,15,16,16,15,15,15,14,14,14,14,15,13,12,10,10,14,14,12,15,15,13,12,13,14,14,13,12,11,11,12,14,15,10,8,9,11,10,11,10,9,7,6,8,8,9,9,8,8,11,11,12,12,11,10,8,6,6,7,7,6,5,6,8,7,7,9,7,7,8,13,11,8,6,7,9,6,5,7,8,9,9,9,11,10,10,10,10,11,12,13,12,13,13,12,10,7,8,9,10,10,11,10,8,9,10,12,13,12,11,13,13,11,12,12,10,9,10,11,10,9,10,10,9,9,11,11,11,10,10,13,12,12,14,13,12,12,11,11,10,11,12,13,13,11,10,10,11,10,9,11,11,11,11,11,12,13,10,8,9,11,10,13,13,13,14,14,15,15,14,14,15,16,17,17,14,11,9,11,13,11,12,12,11,10,11,12,9,6,7,9,9,8,7,9,10,9,9,11,11,11,10,11,10,13,14,14,13,9,11,13,12,9,5,6,7,6,9,10,11,13,14,13,13,13,13,14,14,13,11,11,11,12,12,13,12,12,13,14,12,11,12,13,12,12,13,11,10,11,13,14,13,13,12,12,10,12,13,12,10,11,11,11,11,11,12,12,10,10,13,14,9,9,10,9,7,6,10,11,10,8,10,12,9,8,6,5,6,7,9,8,6,8,6,7,8,5,7,8,10,11,9,8,9,11,10,11,10,8,8,10,12,10,10,12,13,12,11,14,12,11,16,21,27,27,23,18,13,12,14,12,12,11,9,10,10,13,14,12,11,10,13,13,13,14,13,13,13,12,11,12,14,15,14,14,15,16,18,19,24,18,17,15,15,14,14,14,15,15,15,14,15,15,12,14,13,13,12,13,13,14,13,12,14,14,12,13,14,14,13,14,14,16,14,13,12,14,18,22,21,17,14,14,15,14,15,15,13,12,13,13,14,16,15,13,14,21,26,26,25,22,15,14,14,14,14,14,12,13,12,13,13,14,15,13,14,13,13,14,15,14,14,15,15,15,15,15,15,16,17,15,13,13,15,15,14,13,14,13,14,17,16,15,15,15,17,16,16,17,16,15,15,14,15,16,15,18,22,20,16,15,16,17,18,18,18,19,20,19,20,20,19,20,20,21,19,19,20,19,20,19,18,20,19,18,17,17,18,17,19,17,17,18,17,17,18,17,18,17,16,17,18,18,18,17,17,18,17,17,17,17,17,18,17,17,17,19,20,18,17,17,18,17,17,17,17,17,17,20,18,17,17,15,15,16,16,17,17,15,19,22,18,16,14,16,17,17,15,15,16,16,15,13,14,16,16,18,17,15,15,15,13,13,14,14,15,14,14,15,14,13,14,14,14,14,14,13,10,8,10,8,11,10,10,12,13,12,12,12,12,12,13,12,12,11,12,13,13,14,12,13,14,13,13,11,12,12,13,13,12,11,12
183,184,180,180,180,181,179,179,181,180,178,178,177,179,178,177,178,180,176,175,179,178,174,173,171,167,167,169,168,168,168,167,168,165,161,163,160,154,153,156,159,163,163,163,163,165,171,190,193,177,156,146,144,144,143,142,141,141,138,136,136,137,136,136,135,136,135,135,134,133,132,134,133,132,132,132,131,135,133,130,132,133,130,132,132,130,131,130,130,130,129,126,128,128,130,133,133,130,128,128,126,128,128,130,129,129,131,132,129,131,130,130,132,130,126,128,128,126,127,129,129,128,127,127,126,124,123,124,123,124,120,121,123,120,118,118,119,119,119,120,120,119,118,119,115,114,116,115,115,117,116,114,117,119,118,118,118,118,120,118,118,120,118,118,118,118,119,117,118,119,121,121,119,120,120,120,120,121,121,121,121,121,120,121,122,120,119,118,119,118,117,120,120,123,123,121,122,123,124,124,124,124,124,124,126,125,125,126,125,124,123,124,124,123,121,118,108,111,121,121,121,118,113,106,105,114,121,131,135,139,145,155,169,178,190,196,200,200,191,183,178,182,190,197,201,205,205,193,175,152,144,135,136,144,145,152,168,164,153,156,164,176,193,195,179,162,151,143,137,128,125,128,134,136,140,138,131,130,124,115,105,94,84,77,78,77,75,75,76,76,77,80,83,86,84,90,98,107,107,109,109,105,105,108,113,106,86,71,68,68,73,80,81,83,88,94,91,85,80,78,73,65,64,68,65,63,62,62,64,63,60,60,60,59,57,58,56,56,57,57,58,56,54,53,52,54,54,52,53,55,56,54,52,51,51,52,53,53,53,54,54,53,52,52,53,50,50,49,49,49,50,49,48,49,48,47,47,48,47,45,48,49,48,45,43,45,47,47,43,42,42,44,46,43,43,46,47,45,43,42,40,42,43,43,43,43,43,42,41,41,40,41,42,42,42,41,41,39,39,39,39,38,38,37,37,38,38,39,38,38,38,39,38,37,37,35,35,36,35,36,33,32,34,34,33,34,34,31,31,30,30,31,30,32,31,31,31,33,32,30,29,29,29,30,27,29,30,30,29,27,29,31,27,25,26,27,27,29,29,28,28,27,27,27,28,26,26,27,26,27,25,27,27,28,28,28,28,27,28,28,26,24,26,26,27,26,27,26,25,25,24,26,27,27,25,25,22,20,20,21,22,23,24,22,23,23,22,22,21,22,21,20,21,19,19,21,21,22,22,22,23,22,20,21,20,20,19,19,17,18,20,19,17,17,19,19,17,17,16,17,17,14,15,16,16,15,16,16,16,13,15,14,14,15,15,13,14,12,13,14,13,13,12,12,14,13,12,11,13,13,10,12,13,13,11,12,12,11,10,9,11,12,14,11,9,9,9,8,9,8,7,7,9,11,11,11,7,5,7,9,6,5,5,6,3,6,8,7,7,8,6,7,7,7,7,7,7,5,6,8,5,5,6,9,10,12,11,13,12,13,13,13,11,11,13,12,9,11,11,7,9,11,11,10,9,11,10,9,8,9,9,12,9,5,12,14,12,15,12,10,9,8,9,10,12,11,10,10,11,11,12,10,11,12,12,12,13,12,12,12,12,13,13,11,13,12,12,11,11,11,10,9,10,9,8,9,12,15,12,8,6,9,11,10,12,9,12,12,15,16,14,14,15,14,13,15,13,15,16,15,14,13,11,11,12,12,11,10,9,11,11,9,7,9,11,11,10,9,8,8,5,10,11,10,10,11,13,11,11,11,11,12,10,15,13,11,8,6,5,6,6,6,6,7,7,10,10,11,13,11,11,10,11,13,13,13,12,12,12,13,12,13,13,14,12,13,13,11,12,12,11,12,13,13,12,12,13,14,12,11,10,12,14,11,13,11,11,13,12,13,12,12,11,12,11,10,10,11,11,11,12,10,9,9,9,10,10,9,8,7,8,10,7,10,7,6,9,10,8,6,7,8,10,11,10,8,8,8,9,9,9,9,9,9,9,8,7,9,10,11,13,14,13,13,13,18,24,28,29,25,19,12,13,12,10,13,13,11,10,9,11,11,11,12,14,13,12,12,12,12,13,12,13,12,13,13,15,14,13,13,13,14,16,19,19,19,15,13,13,14,14,14,15,15,15,16,16,14,13,15,12,13,14,13,14,15,15,15,14,11,14,14,14,13,13,15,17,16,14,13,14,16,19,17,15,19,19,18,16,14,16,14,14,16,15,15,16,15,15,14,20,27,27,21,16,13,11,14,15,14,14,13,13,12,13,14,15,16,15,14,14,15,16,16,14,15,15,15,15,15,15,15,15,15,15,15,14,14,14,15,14,15,15,17,16,15,15,16,16,15,16,16,16,16,15,15,15,17,16,14,19,25,24,16,15,16,15,16,16,16,18,19,20,21,19,17,20,21,21,20,20,21,20,22,22,20,19,19,19,18,18,18,18,17,16,16,16,17,18,17,17,19,18,18,19,19,18,18,17,17,17,16,17,16,16,17,16,16,17,18,19,18,17,17,17,18,16,16,17,18,18,18,18,16,16,15,16,17,16,15,16,17,15,16,19,16,15,15,13,13,15,15,16,17,16,13,12,14,16,18,16,16,16,15,14,14,14,15,16,15,14,15,15,15,15,16,17,15,13,12,11,9,10,11,9,11,13,12,13,12,13,13,13,13,13,13,12,12,13,12,13,13,13,13,14,14,13,13,13,14,16,16,14,12,11,12
183,183,180,179,180,179,179,182,181,179,179,178,181,179,177,177,177,179,181,184,186,184,179,174,171,170,169,169,168,168,169,168,166,165,160,155,154,157,160,160,164,166,169,173,172,174,183,192,185,164,150,145,145,145,144,143,140,138,138,140,138,137,137,137,136,134,134,136,135,134,134,133,133,133,132,134,133,134,131,132,133,131,130,131,130,130,129,128,129,131,130,128,129,128,128,131,131,131,130,128,128,129,127,130,130,130,131,132,133,133,133,134,132,128,126,129,131,128,128,129,130,128,125,124,124,128,125,125,123,119,120,122,122,116,116,118,121,125,120,119,119,117,116,117,115,114,114,116,117,118,118,116,116,117,118,118,119,120,122,123,121,119,119,121,120,119,119,119,118,120,119,119,118,118,120,119,119,119,120,120,121,122,122,121,120,121,119,120,119,118,119,118,119,121,121,121,122,123,123,125,125,125,126,126,126,126,127,126,124,125,127,125,124,123,120,117,109,117,123,122,122,122,118,112,107,106,111,120,128,138,147,158,171,180,189,192,183,170,166,169,171,176,182,188,193,196,201,202,190,179,162,143,128,126,128,139,143,134,138,154,164,173,183,184,177,166,156,144,136,138,146,147,139,126,131,131,122,120,113,103,94,84,78,76,73,75,78,78,80,84,89,92,93,97,95,96,105,114,119,118,118,117,118,119,118,99,81,71,65,66,76,90,91,92,92,86,82,75,70,73,74,75,79,80,74,68,65,63,64,64,62,61,60,58,57,58,55,56,59,57,56,55,57,57,54,54,57,55,53,55,54,53,53,52,53,54,52,53,52,53,53,53,53,52,51,48,48,50,49,49,49,49,49,49,51,48,48,49,49,46,46,47,48,45,45,44,44,47,46,47,47,46,46,44,44,44,48,49,45,45,42,42,43,42,43,41,39,41,42,42,41,39,40,41,40,41,41,39,41,41,39,36,39,40,39,36,36,39,38,40,37,36,37,36,37,36,35,35,35,35,35,36,37,37,35,33,34,34,33,32,31,29,29,32,31,30,30,30,28,28,28,29,32,32,29,25,27,30,30,29,29,27,28,28,27,28,27,25,24,26,28,27,28,29,27,24,27,26,27,29,28,27,28,28,28,27,26,27,27,28,28,26,27,27,25,25,26,27,25,24,25,27,27,25,24,26,24,22,21,22,22,23,23,23,22,22,21,21,21,21,22,22,20,19,20,19,20,22,22,19,22,21,21,21,19,19,20,19,19,18,17,18,18,18,20,18,17,15,16,18,17,15,15,14,15,17,17,17,17,15,16,15,15,16,15,16,16,13,14,15,15,15,14,14,15,14,13,12,12,14,13,14,14,13,13,12,10,11,11,9,12,11,11,10,11,11,10,10,11,8,10,11,12,13,12,11,10,9,10,11,8,8,6,7,6,7,8,8,6,6,6,6,7,7,6,8,8,7,7,8,8,8,9,11,12,12,12,12,12,14,12,11,12,12,11,11,10,9,10,11,13,12,10,10,12,11,11,8,8,10,10,9,7,5,7,11,11,12,12,10,10,10,10,10,10,9,11,10,11,11,14,12,7,8,10,10,10,10,11,14,11,12,13,13,13,12,11,12,11,10,12,11,10,8,9,10,10,13,12,10,10,9,8,9,10,10,10,12,13,14,14,14,15,14,13,12,12,11,14,13,15,13,11,11,10,9,9,10,11,11,10,10,8,10,11,11,9,9,9,8,6,8,9,9,8,9,10,11,12,11,10,10,9,13,11,10,9,8,7,6,6,7,7,7,7,9,10,10,10,10,11,10,10,12,13,10,12,12,12,13,13,13,14,14,13,13,13,13,13,13,12,12,12,12,12,10,11,11,10,11,10,12,13,12,11,9,10,12,13,12,13,11,12,11,9,10,12,13,13,12,11,9,10,12,11,10,9,9,10,9,10,9,7,8,10,12,9,9,9,6,8,10,12,12,10,8,9,11,9,8,9,11,8,7,10,9,9,11,10,10,13,14,12,13,15,15,14,18,23,19,13,12,12,12,13,12,13,12,9,11,13,11,14,14,12,12,12,12,11,13,13,12,14,15,13,14,13,13,12,12,11,14,16,15,16,18,16,16,16,15,15,15,14,14,15,16,15,13,11,15,14,15,15,14,14,14,14,14,15,14,14,15,14,14,14,17,17,14,13,14,14,16,14,14,14,18,19,19,15,15,16,14,12,16,16,16,16,15,14,14,17,20,19,15,15,13,12,13,13,15,16,16,14,13,13,15,15,15,13,13,13,15,15,15,15,14,14,14,14,15,15,15,13,15,14,15,15,15,15,14,15,16,15,16,14,16,16,15,16,16,17,18,18,18,17,17,16,17,16,14,17,17,18,17,16,17,17,17,17,17,17,17,19,19,18,17,17,19,19,20,22,21,20,20,21,21,18,18,19,18,19,19,18,17,20,20,18,19,16,17,17,18,19,19,19,18,18,19,18,18,17,17,19,19,17,20,19,19,18,19,19,18,17,17,17,19,18,17,17,18,18,18,18,17,16,18,18,17,17,16,16,15,16,17,15,16,17,16,15,14,14,15,17,17,17,15,14,14,15,15,15,16,14,13,14,13,14,17,18,16,15,14,16,16,14,15,14,13,13,10,9,10,10,9,9,13,13,12,13,13,13,11,12,14,13,11,10,11,12,12,13,14,13,14,14,13,13,13,13,13,15,18,16,14,12,13
185,185,182,182,181,180,181,181,180,179,179,179,179,179,178,178,186,194,193,193,190,188,184,178,174,172,170,170,168,165,163,161,161,159,155,156,159,161,162,160,163,165,168,172,182,191,186,170,161,156,150,147,147,147,146,145,144,146,143,140,137,137,137,138,135,133,134,135,134,136,134,133,132,133,133,133,132,131,129,131,133,131,131,130,129,127,126,128,129,130,130,131,133,131,132,135,132,132,133,131,131,132,130,130,129,129,134,137,136,130,133,137,132,131,133,131,127,126,127,126,128,125,123,124,126,128,127,126,123,122,121,120,120,117,121,121,124,121,122,121,120,121,121,122,122,119,117,118,119,118,118,118,118,118,119,118,119,121,121,120,121,121,122,124,122,121,121,120,119,119,121,120,119,120,121,119,119,119,119,120,121,122,121,120,123,124,121,120,120,119,120,120,120,121,120,121,123,124,124,124,125,126,127,127,127,125,125,123,124,126,128,127,126,122,118,114,116,123,123,124,122,122,122,118,111,108,109,114,127,141,150,158,172,181,180,169,158,154,154,159,170,173,178,181,184,191,201,208,200,178,158,145,139,128,121,123,125,133,140,146,156,169,173,163,154,156,158,146,128,124,133,141,131,113,108,107,104,95,89,81,77,77,77,76,77,82,87,87,87,93,98,103,109,109,107,104,108,118,124,121,121,123,122,120,105,87,74,67,68,71,81,92,99,97,88,81,79,74,72,79,81,81,84,85,77,69,66,63,63,63,64,60,60,60,59,57,59,60,62,59,56,56,56,56,56,53,54,56,58,58,56,56,57,57,57,56,54,54,55,56,55,53,52,52,51,51,49,51,50,50,51,50,50,49,50,48,45,46,46,45,47,48,47,43,44,47,46,48,46,45,45,46,48,47,47,42,44,46,45,45,45,45,46,45,45,43,41,43,42,43,42,41,41,41,39,39,40,39,39,39,41,41,39,38,39,37,36,37,38,39,37,37,38,39,39,38,38,35,36,37,35,35,37,36,35,34,35,35,32,32,32,31,30,31,32,32,31,30,29,29,28,24,26,31,32,30,27,28,28,27,26,26,26,27,27,28,28,29,29,30,29,29,29,28,26,25,25,25,26,27,26,28,31,31,27,26,27,26,26,26,27,27,25,24,24,24,25,26,26,25,24,24,26,26,24,24,24,24,23,23,22,22,24,23,22,21,21,22,22,20,22,22,21,21,21,22,21,20,21,20,21,19,19,19,19,18,18,19,19,18,17,17,17,18,18,18,18,19,19,16,18,17,20,17,16,16,18,18,18,15,15,16,16,16,16,16,17,15,16,15,14,13,17,20,16,15,15,11,11,13,13,13,14,14,15,14,14,13,13,9,11,10,10,10,11,11,11,10,10,12,13,15,15,14,12,13,12,9,11,12,9,9,6,5,7,8,7,8,7,7,6,6,7,6,7,7,8,7,7,9,10,12,12,14,12,12,13,12,12,13,13,11,13,17,14,12,9,8,9,11,13,11,11,10,12,14,13,10,11,11,8,10,10,7,8,13,13,14,15,14,14,14,10,9,11,12,11,11,13,12,13,13,10,10,11,12,10,10,12,15,12,12,13,13,12,12,11,11,10,11,13,13,10,9,9,12,13,11,10,13,12,12,10,6,9,9,9,13,14,14,14,14,13,13,13,10,10,12,11,11,14,13,12,13,12,9,11,12,11,12,11,10,11,10,10,11,11,11,10,10,9,10,11,9,8,7,9,11,12,14,12,10,9,10,9,8,10,10,9,10,10,10,8,7,7,7,8,7,9,11,12,13,12,12,13,12,12,12,12,11,12,13,13,13,12,13,12,11,12,12,12,12,12,13,13,12,10,9,10,9,11,11,10,10,11,10,10,11,12,13,13,13,11,11,12,10,10,13,12,12,11,9,10,11,10,10,9,10,9,10,10,11,10,11,13,12,8,9,9,8,8,10,9,10,10,12,13,11,11,11,9,9,9,10,8,8,9,10,10,11,12,13,11,13,14,12,13,11,11,12,13,13,11,11,12,11,12,12,12,12,12,13,14,13,12,12,12,14,13,13,12,13,14,17,14,14,13,13,12,13,15,15,16,15,14,15,13,16,16,15,13,12,14,14,14,14,13,16,13,13,16,15,13,14,14,14,14,15,16,15,17,16,13,14,16,17,16,15,14,15,14,15,16,17,14,13,15,12,10,12,15,16,14,15,15,15,15,17,16,15,15,14,15,17,15,15,16,15,15,17,17,15,13,14,14,14,14,15,17,16,14,14,14,14,15,16,15,15,14,15,16,14,15,16,15,14,15,15,15,15,16,16,15,16,16,17,16,16,16,16,18,17,18,18,19,17,17,18,17,15,14,15,16,17,17,18,18,16,17,17,16,16,16,17,19,20,17,19,20,20,20,21,20,19,21,20,19,20,19,19,20,19,19,18,19,19,17,18,18,17,18,18,19,18,19,18,18,18,18,18,17,17,18,19,18,19,20,18,20,21,19,18,17,16,16,17,19,19,19,18,18,17,18,19,19,17,17,16,15,16,16,16,16,16,15,15,17,16,14,14,15,15,16,16,16,14,15,17,17,19,16,14,15,16,16,19,19,18,17,16,14,14,13,12,11,11,9,8,9,10,11,9,9,9,12,14,15,14,13,13,13,12,13,12,13,12,11,12,13,11,13,14,13,14,13,13,16,15,14,12,16,17,17,13,12,12
184,183,184,184,182,184,185,184,179,179,179,179,178,180,185,191,198,201,199,197,191,186,182,178,175,172,168,169,167,166,161,159,159,161,160,159,161,162,162,164,164,163,169,177,197,211,186,163,152,151,150,150,148,145,145,143,142,142,141,141,140,137,137,138,137,136,136,135,135,134,134,132,132,132,133,132,132,130,131,131,132,131,132,129,129,130,131,132,134,134,131,130,133,134,134,136,135,135,135,133,134,131,132,132,133,132,138,138,136,135,135,130,130,130,131,130,127,126,125,128,127,126,124,125,124,124,124,124,122,122,122,122,122,123,125,125,123,120,122,123,123,125,122,121,120,121,118,117,119,119,119,119,119,120,118,118,118,120,121,121,121,121,122,122,121,121,121,123,123,122,121,120,120,120,122,120,120,122,121,122,123,123,122,121,122,121,122,121,120,120,121,121,122,123,122,122,122,125,127,125,124,128,129,128,127,127,128,127,127,127,127,125,125,123,114,112,122,126,125,125,124,122,123,121,118,110,105,108,126,137,146,153,163,168,156,146,147,151,157,162,165,167,175,182,190,195,198,202,200,181,173,175,170,151,133,120,120,126,128,134,142,158,160,148,135,126,134,132,115,100,105,117,114,113,103,90,89,84,79,77,76,75,76,80,90,99,103,103,96,101,109,115,121,122,116,112,121,126,131,128,124,119,114,105,92,80,71,68,70,72,74,87,100,99,94,93,93,88,86,87,82,78,73,73,72,69,68,69,72,73,68,63,63,61,59,58,59,61,62,61,59,58,57,56,56,56,56,56,56,56,53,55,55,55,55,57,55,53,55,55,55,53,51,51,51,51,51,51,51,47,49,50,49,48,50,49,47,47,46,47,48,49,50,47,45,46,46,48,49,47,46,45,46,45,45,45,45,46,46,45,46,46,47,48,44,43,43,43,43,43,45,44,43,41,38,38,43,43,38,39,40,42,40,38,38,37,35,37,39,39,41,39,39,41,38,35,36,35,34,35,35,35,33,35,34,33,34,34,32,31,33,33,31,30,31,32,32,31,31,33,29,27,27,28,29,29,23,27,28,28,28,29,27,29,29,30,29,28,29,31,29,27,27,29,30,28,26,27,27,28,28,27,27,31,29,28,30,27,27,29,25,25,25,25,26,26,27,26,27,25,23,22,23,24,24,24,25,25,26,25,25,23,24,23,21,23,23,23,22,20,20,21,22,21,21,21,21,20,19,19,21,18,17,16,18,18,19,19,18,17,19,19,18,18,18,17,17,18,18,18,17,17,19,18,18,18,15,17,20,17,16,16,15,16,17,16,17,16,16,16,15,15,16,15,15,16,15,14,14,12,12,13,15,17,16,14,13,13,13,10,10,12,10,10,10,9,9,10,12,13,15,16,16,14,13,12,11,13,13,13,10,8,8,7,8,7,7,9,7,5,5,6,6,6,8,8,9,9,10,11,10,11,13,14,12,13,14,14,13,13,12,12,13,12,13,14,11,9,10,12,12,12,14,12,11,12,11,10,13,14,11,10,10,9,11,11,12,11,13,12,12,11,11,11,10,9,9,10,11,13,12,13,10,12,10,10,11,11,9,13,13,13,12,15,15,12,10,10,8,12,13,13,13,11,11,13,13,11,11,12,7,7,8,9,10,10,9,11,13,14,13,11,12,12,11,11,11,11,13,10,9,10,12,13,12,9,11,12,10,10,11,11,12,13,12,11,10,9,10,10,10,11,10,7,9,10,11,12,11,11,12,11,9,10,10,9,9,10,9,11,14,12,11,10,7,8,8,6,7,9,11,12,12,11,10,10,12,12,12,12,11,12,12,10,10,11,9,10,10,11,12,11,11,10,13,11,10,10,11,12,13,10,8,9,11,11,10,9,8,11,12,10,11,11,11,11,10,12,13,14,15,10,10,10,11,13,11,10,10,12,10,9,9,10,8,6,8,8,7,8,8,7,7,8,10,10,12,13,12,12,10,10,10,11,10,9,11,10,10,12,13,12,13,14,15,14,13,12,13,12,11,11,10,10,11,12,11,13,11,12,14,13,12,13,11,10,13,13,12,12,13,14,12,16,15,17,18,15,14,14,15,15,14,14,13,15,14,15,15,16,17,15,15,14,15,14,13,14,12,14,14,15,15,15,14,15,15,15,15,16,15,14,12,16,15,13,13,13,14,14,16,15,16,16,13,14,13,12,11,15,15,15,17,19,18,16,15,15,14,15,14,14,14,14,14,14,18,16,15,14,15,16,14,17,15,13,13,14,21,23,22,17,16,15,15,15,15,15,17,16,15,16,15,14,16,17,17,17,15,15,16,17,17,16,16,16,16,16,16,17,17,17,18,19,19,19,18,18,17,16,17,16,16,16,16,17,16,14,15,16,16,16,17,17,19,20,19,19,20,21,21,20,20,20,19,18,19,18,18,18,19,18,17,17,18,18,19,19,18,18,18,19,18,19,18,19,17,18,18,18,19,20,18,18,20,19,18,19,19,19,19,19,18,17,17,18,19,18,19,19,19,18,16,17,17,17,16,17,17,18,18,19,18,15,16,17,16,15,15,17,16,15,17,16,14,15,18,19,17,16,16,17,18,18,18,23,21,19,19,15,12,11,10,9,9,9,10,10,11,11,10,8,9,12,16,16,15,16,15,13,13,14,13,14,14,12,12,13,13,12,14,16,14,14,13,15,17,16,14,11,12,13,13,12,13,13
186,186,185,185,184,185,185,184,181,182,182,182,184,186,193,202,205,205,204,197,190,183,180,179,176,168,170,171,168,167,163,162,163,162,162,164,166,168,165,165,166,165,172,186,211,216,195,180,157,151,150,152,150,145,143,141,143,140,140,138,139,140,141,142,137,134,134,132,133,133,132,132,132,132,132,132,133,131,132,132,131,130,132,132,131,133,134,137,139,135,135,136,134,134,133,136,136,137,137,133,131,131,131,134,136,135,136,138,133,131,135,134,132,132,130,130,130,128,127,125,123,125,124,124,124,124,123,123,124,121,119,118,120,122,126,126,128,124,125,124,123,123,121,121,120,120,120,120,119,120,118,119,119,119,119,121,120,119,120,121,122,121,121,123,123,121,120,122,123,123,121,120,122,121,123,121,121,121,121,120,121,122,122,124,124,124,123,122,122,120,122,122,122,123,124,123,125,126,126,127,129,131,132,131,129,127,129,128,129,129,127,124,124,116,111,121,126,126,126,125,123,122,124,120,119,115,111,110,124,134,144,153,161,152,141,144,149,151,155,156,163,169,174,181,184,187,191,200,203,190,185,188,184,174,154,131,118,113,120,127,138,149,148,134,116,105,105,102,98,93,91,90,90,92,90,84,82,82,79,78,79,81,88,97,108,113,116,117,108,108,117,129,135,133,124,119,127,132,132,124,114,104,95,85,80,74,70,70,74,78,79,78,81,87,96,104,105,100,97,102,96,86,77,73,74,76,79,85,85,77,68,64,64,62,60,58,57,57,58,60,59,59,57,55,57,55,56,56,57,56,52,50,54,55,54,55,54,54,55,54,56,54,52,52,51,51,52,55,54,50,51,52,51,54,56,51,47,47,48,48,48,49,49,48,48,49,49,50,50,48,48,49,48,47,47,47,47,48,47,45,44,44,45,46,46,44,42,41,41,42,44,45,42,41,41,41,41,39,38,41,41,40,40,40,40,38,37,38,36,38,39,39,38,38,36,36,35,34,36,37,36,36,36,34,32,33,33,33,32,32,32,32,33,31,31,31,31,32,33,31,29,29,26,27,30,30,28,27,27,30,29,30,30,31,30,30,29,29,28,29,32,31,29,29,30,30,28,28,29,28,27,27,27,26,30,33,31,29,28,26,23,25,25,26,27,24,27,27,25,24,25,24,24,24,25,24,25,24,24,25,24,22,23,22,21,22,24,23,23,23,22,22,21,20,20,19,18,19,19,20,18,19,18,17,19,19,20,19,20,20,18,16,16,17,18,17,15,15,17,16,16,17,17,19,19,18,16,18,19,16,17,17,16,17,17,17,18,18,18,17,15,15,16,13,14,15,16,17,15,12,12,13,15,15,14,13,12,11,12,10,9,11,8,6,9,10,10,13,14,16,17,18,18,15,14,14,13,15,11,10,10,8,9,8,9,9,10,9,7,8,10,8,7,7,7,10,7,10,10,9,9,9,11,12,12,12,12,12,11,13,13,10,8,8,11,14,12,11,9,9,11,12,13,13,13,13,11,10,11,13,11,8,11,11,12,12,14,12,12,15,15,15,13,13,13,13,11,13,12,12,9,11,13,10,9,10,11,13,13,15,13,12,12,11,14,12,11,10,9,11,11,12,10,11,10,12,12,11,13,9,8,12,10,8,9,11,12,10,9,8,7,10,11,10,10,9,11,13,13,13,12,10,11,14,12,11,9,9,10,11,11,12,11,13,13,12,11,10,11,12,11,9,11,10,11,9,9,12,12,9,8,9,9,11,10,10,9,9,9,11,12,12,12,12,10,9,9,6,6,7,10,8,10,12,11,11,12,13,12,11,12,11,10,10,11,10,10,12,13,11,13,11,12,13,11,12,11,12,12,13,14,12,10,9,10,13,11,11,9,11,12,10,11,12,14,12,11,11,12,14,14,13,13,13,12,12,10,11,10,11,11,10,8,7,7,9,8,9,8,9,9,6,6,7,8,8,8,9,10,11,10,9,9,9,10,11,11,8,7,10,12,13,12,13,15,15,14,14,12,13,12,11,12,12,14,16,15,15,13,11,12,14,13,13,13,11,11,12,15,14,12,13,13,16,12,14,14,15,15,14,13,14,15,13,13,13,14,15,14,15,15,16,17,15,13,13,12,13,13,15,14,13,16,16,15,14,15,15,14,15,14,14,16,18,16,15,16,16,14,15,15,14,14,14,11,15,14,11,12,14,15,17,21,21,19,17,17,15,15,15,14,14,13,14,15,15,15,16,16,15,17,18,17,15,14,15,13,11,17,22,22,17,16,15,15,16,15,15,17,16,14,16,15,15,16,16,16,16,16,15,16,18,17,16,16,16,15,15,16,17,18,18,20,19,19,19,18,17,16,15,16,17,16,16,16,16,17,17,17,17,16,17,19,17,17,17,19,21,21,21,22,22,20,19,19,20,20,19,21,21,19,19,18,18,19,20,20,20,18,19,18,18,19,19,20,20,17,18,19,19,18,19,18,20,20,18,19,20,19,18,18,19,19,18,19,19,19,20,21,20,19,17,17,18,17,16,17,17,17,17,19,20,18,17,18,18,16,16,17,17,16,15,17,20,18,17,17,17,17,18,20,21,21,19,17,17,17,15,13,12,11,10,11,11,10,10,10,11,10,12,12,12,11,13,15,15,16,15,13,13,13,13,13,14,14,13,11,11,12,14,12,14,13,15,14,15,15,15,15,12,13,13,15,15,14,15
186,188,187,186,184,186,188,186,185,186,188,189,198,208,207,207,208,208,204,197,187,183,181,178,174,171,179,178,171,167,165,162,164,167,165,165,167,169,169,167,165,167,170,173,183,189,181,171,159,165,162,162,159,151,144,142,141,140,140,138,141,144,144,139,137,135,135,134,132,136,135,132,133,135,133,133,132,131,133,134,133,132,131,135,134,131,132,134,137,136,137,136,132,134,137,136,138,136,136,133,131,131,130,134,137,136,135,136,133,132,133,136,135,135,134,130,133,129,127,124,125,125,125,124,122,122,124,125,123,122,121,124,125,123,122,123,126,124,125,126,122,121,119,119,121,120,119,119,118,118,118,118,119,122,121,121,121,121,121,124,124,123,122,123,122,123,122,120,122,123,123,123,124,122,123,122,123,123,121,119,123,125,125,125,124,124,124,124,124,124,123,124,124,126,126,125,127,127,127,127,127,130,132,132,130,128,128,131,131,129,127,126,118,114,121,126,128,127,126,125,125,124,125,124,123,122,118,113,122,133,137,143,138,130,131,139,141,144,146,152,161,163,166,169,178,185,192,196,188,174,162,158,161,162,153,137,121,109,112,118,119,126,125,109,100,96,96,92,89,87,85,85,86,84,85,83,81,81,79,79,86,104,116,120,127,130,126,122,113,115,126,138,141,139,132,129,132,136,136,125,115,103,92,79,71,70,69,71,81,91,88,82,78,82,87,100,112,114,109,109,103,91,81,78,81,87,94,95,87,76,67,66,65,63,61,60,61,59,58,58,58,58,59,56,56,57,57,57,57,57,56,54,54,54,55,54,53,56,56,53,54,53,54,53,52,51,52,52,51,49,52,54,51,52,52,50,50,50,47,47,51,51,49,48,48,50,48,49,50,48,48,49,48,47,48,48,46,45,45,45,46,45,45,48,49,46,46,44,41,40,42,43,42,43,43,43,40,40,40,41,40,39,40,40,37,39,39,40,42,39,38,36,41,40,39,38,35,37,37,35,35,35,35,32,32,32,32,33,33,33,30,30,33,35,31,33,34,34,32,32,31,31,29,29,29,28,27,27,30,30,31,29,29,29,29,31,29,29,29,30,31,31,30,31,31,32,30,29,30,28,27,28,27,25,28,30,27,27,27,25,26,27,26,25,28,26,26,25,24,25,24,23,24,24,24,24,25,25,24,23,23,23,23,21,20,20,22,21,24,22,23,21,20,19,20,21,21,21,19,19,19,19,18,17,19,19,18,19,19,19,19,17,18,18,17,16,16,17,17,17,17,18,17,19,19,17,15,15,14,15,16,15,16,15,17,18,18,19,18,16,15,16,17,12,11,13,14,16,16,13,11,12,14,14,13,12,12,11,12,12,10,12,11,10,9,11,12,14,16,17,16,15,15,16,15,13,15,13,11,12,11,10,9,8,9,9,11,9,8,8,10,9,8,8,8,11,9,8,8,10,8,7,8,7,9,14,13,12,11,11,11,11,11,12,15,15,13,9,8,9,13,14,12,13,13,12,12,11,13,11,9,8,7,10,12,12,13,13,16,18,14,18,14,12,13,14,12,10,10,13,11,12,12,11,11,12,12,14,15,15,13,13,14,13,13,12,11,12,11,10,9,10,9,10,12,13,12,11,10,9,7,10,9,7,8,11,11,9,10,9,9,8,10,10,9,9,11,11,10,12,14,10,11,13,13,13,12,11,11,10,12,9,10,9,9,9,11,11,11,10,10,10,10,10,13,12,11,12,13,13,10,11,11,10,11,11,10,9,9,10,12,11,13,14,10,10,10,7,7,8,9,8,10,13,14,14,12,12,12,12,10,10,11,12,14,14,15,13,12,12,12,11,11,13,14,13,14,14,12,11,13,13,11,10,14,13,11,9,10,10,11,10,12,13,12,12,12,13,11,12,13,14,15,11,7,8,9,11,11,12,12,10,10,10,9,9,8,8,8,9,8,6,5,6,7,9,7,8,11,11,11,10,9,10,8,9,11,10,8,11,12,13,11,13,13,13,16,15,14,15,13,13,13,14,16,13,13,13,14,16,10,9,12,12,13,12,13,17,19,15,13,13,16,14,11,12,13,12,13,12,12,17,18,15,14,13,14,15,15,16,17,18,18,17,15,14,14,13,14,15,13,14,14,17,16,16,18,15,14,14,14,16,17,17,16,18,18,18,15,15,14,14,13,13,13,16,15,13,13,13,14,15,20,23,21,17,17,15,17,20,20,15,15,15,15,16,15,17,16,16,17,18,18,18,17,15,13,12,15,17,16,15,16,17,16,16,17,16,19,17,16,16,17,16,15,16,16,17,16,17,16,16,16,17,16,17,16,17,18,17,17,18,19,18,19,19,19,18,16,16,15,16,17,18,17,16,15,17,20,17,17,18,19,17,17,17,18,21,21,21,21,21,20,20,20,20,19,18,19,19,19,20,19,19,19,20,20,19,18,19,19,18,19,19,19,18,18,18,18,20,20,19,19,20,18,20,19,19,18,17,18,18,19,21,20,20,20,20,21,19,18,18,17,16,17,17,18,18,17,19,20,20,19,16,18,19,17,18,18,17,16,18,19,21,18,18,19,21,19,18,21,22,21,19,19,19,18,13,11,9,12,12,12,12,12,12,12,14,16,16,16,14,13,13,14,14,14,14,15,14,14,12,12,13,14,14,13,12,13,14,14,13,14,14,15,15,15,15,14,13,13,14,13,14,13,14
187,187,190,188,187,188,194,197,197,195,197,203,212,214,212,211,214,212,202,189,183,182,179,174,170,175,184,178,170,167,163,162,168,168,166,165,168,168,170,167,171,170,171,173,170,169,167,163,162,172,172,169,167,163,152,145,142,142,141,139,138,140,140,137,136,138,137,134,134,135,135,135,138,140,139,138,136,135,134,134,132,131,134,136,135,132,132,133,134,136,135,136,137,139,139,137,140,138,135,137,136,136,137,136,138,137,135,134,135,132,130,131,134,132,130,131,131,126,127,128,127,126,127,125,123,122,123,124,120,120,119,123,126,125,123,124,122,122,125,127,124,122,121,120,118,119,119,116,117,119,119,121,120,119,121,121,119,121,123,124,122,123,123,123,123,125,124,123,121,122,123,124,123,123,123,126,127,126,123,123,126,126,126,126,126,126,125,126,126,123,123,123,126,126,125,125,126,126,126,127,125,126,129,128,128,129,128,130,130,128,129,124,119,127,125,125,128,129,127,125,126,125,126,126,125,123,118,111,113,120,123,121,121,124,129,132,140,141,143,147,155,162,168,177,183,189,198,196,182,164,146,136,138,139,131,121,114,109,105,103,99,98,98,98,97,95,94,94,94,97,96,89,89,85,84,84,83,82,82,87,108,127,135,138,137,134,129,127,122,129,140,145,146,143,137,137,138,141,139,125,115,104,89,77,73,71,71,71,76,92,97,89,84,85,86,94,108,118,116,106,96,90,85,84,89,93,93,85,75,69,66,64,64,65,67,66,63,62,61,61,59,58,57,56,56,58,57,60,61,58,57,55,54,57,58,55,52,54,56,55,55,55,55,57,56,53,51,53,53,50,51,52,51,50,52,50,50,51,49,47,47,48,46,49,50,50,49,50,50,49,47,48,48,45,44,45,44,42,44,44,43,44,43,45,46,45,43,42,42,40,41,43,44,43,44,43,40,42,42,41,40,41,37,38,38,38,39,39,38,37,37,37,38,38,38,40,36,35,35,36,37,37,33,33,34,34,33,33,35,33,32,31,32,35,33,34,34,32,32,33,32,31,30,30,31,29,29,31,30,28,29,29,27,29,31,32,30,28,29,29,29,30,31,30,30,31,30,29,28,29,28,27,27,27,28,29,29,29,29,27,26,25,27,27,28,28,26,25,26,25,25,24,22,23,24,24,23,23,22,21,23,23,22,20,21,21,20,22,22,22,23,22,22,22,20,20,20,20,19,18,18,18,16,20,21,20,19,17,18,17,14,16,19,20,19,18,17,17,17,17,17,18,18,20,20,18,18,16,15,15,18,17,18,18,18,18,17,16,17,16,14,13,12,12,14,14,14,14,13,13,14,13,14,13,13,11,11,10,9,11,10,11,12,12,12,16,17,14,13,16,17,15,12,13,15,14,14,13,11,12,11,11,10,9,9,8,7,7,7,9,8,8,8,8,10,10,7,9,8,9,9,10,7,6,10,11,11,12,9,8,10,11,13,14,14,14,13,8,7,11,12,13,13,12,11,14,15,13,11,10,7,8,9,7,6,7,15,17,16,14,13,15,14,15,13,12,12,10,10,9,12,13,12,12,13,13,15,14,13,15,15,14,12,11,13,13,13,14,12,7,8,10,10,11,11,10,9,9,8,9,8,9,5,7,13,12,10,9,11,10,10,10,10,10,11,11,11,10,10,13,13,11,9,12,14,13,14,14,11,9,9,10,9,10,9,12,14,12,12,11,8,9,10,10,9,10,11,13,13,12,10,11,9,10,13,11,8,9,9,11,10,10,11,15,14,12,9,9,10,8,8,8,10,13,12,10,10,12,13,12,11,11,12,12,13,13,13,13,11,11,11,11,11,13,12,12,12,13,13,12,11,12,10,9,11,12,12,11,13,13,14,14,11,11,12,14,13,12,11,13,11,12,14,14,13,11,11,10,11,12,11,12,12,12,8,7,8,8,8,7,8,8,7,5,6,8,9,9,10,11,11,11,10,9,9,8,9,10,9,11,14,13,12,13,13,15,15,15,15,15,14,14,15,16,15,14,14,14,11,13,13,10,11,13,13,14,16,17,15,15,16,15,15,16,12,14,16,17,16,14,14,18,16,14,15,14,13,12,14,15,16,16,16,16,17,17,16,15,16,15,14,16,17,17,16,13,15,14,16,17,18,16,15,16,15,14,16,16,15,16,15,15,14,15,14,12,12,14,13,15,14,16,20,22,21,19,17,20,24,24,22,18,16,15,15,16,15,16,17,16,16,17,18,17,16,15,15,15,14,14,15,15,16,16,15,16,17,16,16,16,14,16,16,17,16,17,17,17,17,18,19,17,17,17,16,16,17,18,17,18,17,18,20,18,18,19,18,19,17,16,18,17,18,19,19,19,18,18,19,19,19,17,18,19,18,18,17,20,20,20,21,21,21,20,21,20,20,20,21,19,18,19,20,20,20,20,19,20,18,19,19,18,18,19,18,18,18,18,17,19,18,19,20,20,19,20,20,19,19,20,19,18,20,21,20,20,20,18,20,20,19,18,19,19,19,18,18,17,18,21,21,20,20,17,13,14,18,19,18,19,20,20,19,17,17,17,20,20,18,17,20,19,19,19,17,15,13,12,10,11,10,13,14,16,15,13,14,16,14,13,13,15,14,13,14,13,14,14,13,13,13,12,11,12,12,13,16,15,14,13,12,12,14,15,14,16,16,15,13,14,14,18,16,14,13,15
188,186,189,189,193,206,211,212,217,214,217,217,217,218,218,217,215,208,194,182,178,178,175,172,175,186,187,178,171,168,163,166,169,169,170,171,173,172,173,179,179,176,175,178,175,175,173,168,163,165,173,174,176,179,175,155,144,143,144,143,140,140,141,136,136,137,137,137,135,135,135,137,141,143,145,141,137,136,133,132,130,130,134,135,137,133,134,136,134,134,134,133,133,137,139,140,140,143,138,138,139,137,136,136,137,141,139,136,136,135,133,131,130,130,131,130,131,128,125,126,128,126,125,126,126,124,121,124,122,123,122,125,126,126,125,127,127,128,130,127,122,121,120,120,119,119,119,117,119,121,122,122,121,121,122,123,123,124,122,122,124,124,123,123,121,122,124,121,121,121,122,124,124,122,124,125,124,123,122,125,126,125,126,127,126,127,126,126,127,124,123,127,126,123,126,125,124,124,128,129,128,126,127,127,125,126,127,129,129,129,126,123,127,130,130,129,130,130,128,126,126,127,127,127,126,122,114,111,114,120,127,133,130,132,138,141,145,149,149,157,162,166,174,183,189,197,204,208,196,174,157,140,122,117,117,115,118,123,122,115,105,102,106,108,113,110,98,101,108,111,108,102,99,90,83,85,86,84,87,98,115,130,141,150,146,143,139,134,130,136,146,152,151,148,144,145,146,149,144,131,115,95,80,72,72,76,76,75,75,78,89,94,91,93,92,98,110,121,117,104,96,89,86,93,100,95,82,70,64,65,66,68,70,75,77,75,70,66,63,61,58,56,55,55,56,58,60,61,61,62,61,59,57,56,57,57,56,57,57,55,54,55,54,54,53,53,53,53,53,52,52,52,51,51,52,51,52,52,49,48,49,49,50,51,51,49,49,49,49,49,46,47,47,47,46,44,43,42,43,44,45,45,46,44,44,46,46,44,42,41,43,43,43,43,43,42,42,41,40,38,38,38,41,40,40,40,41,38,39,40,39,39,40,39,40,39,37,37,38,39,39,37,34,33,37,37,35,36,35,34,31,31,30,34,34,34,36,32,30,31,29,30,31,31,30,29,29,30,31,29,30,29,28,26,30,30,31,31,32,31,30,31,30,29,31,31,28,27,27,28,28,28,28,28,28,28,28,28,28,27,26,26,25,24,26,28,25,26,26,25,26,24,23,23,24,23,24,23,22,22,23,23,22,22,21,21,21,22,22,23,20,21,24,24,21,21,22,21,20,19,19,18,19,20,20,21,21,20,19,18,17,19,20,21,19,19,18,16,16,18,19,18,18,19,21,19,18,16,16,17,17,18,18,19,19,19,18,17,14,15,15,14,12,14,14,15,14,14,13,15,16,13,13,14,14,11,11,13,13,11,10,11,12,13,14,14,16,16,13,14,16,17,14,13,16,16,14,13,10,10,11,12,9,8,9,9,8,7,7,7,8,9,8,8,7,7,7,6,6,5,6,8,7,9,10,12,12,12,11,9,10,11,11,14,14,13,11,9,10,13,13,14,15,12,11,13,12,11,11,11,9,11,9,8,10,11,10,11,12,13,13,14,15,16,15,11,9,12,13,11,10,10,12,13,12,13,15,14,13,13,13,11,11,11,14,15,12,13,14,11,10,11,14,12,11,10,9,8,10,8,8,9,7,10,12,11,10,10,11,9,10,9,9,9,10,10,9,10,9,10,12,13,11,9,10,12,13,12,10,9,9,9,9,10,10,9,9,10,12,12,12,10,9,11,10,10,10,12,12,12,10,8,9,11,13,12,10,9,11,13,12,12,12,11,12,12,11,12,11,9,8,8,7,9,11,11,8,9,11,12,12,13,12,12,12,12,12,12,12,12,10,12,11,13,13,12,11,11,11,12,11,9,10,10,11,11,12,12,14,15,15,14,11,11,14,13,14,12,11,13,11,13,14,13,13,13,11,12,11,12,13,12,13,13,11,11,10,8,7,8,9,8,8,9,7,7,15,13,9,9,11,10,10,10,9,9,10,12,12,14,14,13,13,13,13,15,16,14,14,15,16,14,14,16,15,14,13,15,14,11,13,10,11,14,12,13,12,13,15,15,14,14,14,13,15,15,16,18,19,15,13,14,12,13,14,13,13,13,14,15,13,15,15,15,16,15,16,15,17,16,15,16,15,14,15,14,14,14,15,16,17,16,14,16,14,14,15,14,15,15,15,17,14,15,16,14,16,15,14,13,15,19,20,18,17,18,16,18,22,23,19,17,16,17,16,16,16,18,20,20,19,18,17,16,16,16,16,17,16,16,17,16,17,15,16,14,14,14,15,16,17,17,16,17,17,17,15,16,17,17,16,17,17,15,17,17,16,17,20,19,18,19,19,18,20,19,20,20,18,18,18,18,18,18,18,18,16,17,17,18,19,20,19,18,18,18,17,20,21,21,21,20,21,20,20,20,20,20,19,19,18,19,19,20,19,20,19,18,19,19,20,19,20,20,18,18,19,19,18,19,20,20,19,18,17,19,20,20,20,20,20,19,18,18,19,19,20,17,18,19,17,17,17,19,18,18,19,18,20,21,18,18,19,16,16,16,17,17,20,20,21,21,20,17,17,18,20,18,17,16,14,15,15,15,14,14,14,15,13,12,13,15,16,17,16,15,15,14,14,13,14,14,14,14,14,13,14,14,14,14,13,13,14,14,13,13,14,12,13,15,13,13,15,14,15,15,15,14,13,14,14,15,15,14,13,14
185,188,190,193,209,221,218,215,218,221,219,216,215,211,209,203,193,186,182,180,180,179,176,174,187,193,182,170,164,165,166,165,168,168,169,172,177,177,180,181,181,178,177,183,186,184,182,175,170,173,181,188,194,197,193,166,149,143,144,143,139,138,140,139,138,136,138,137,138,138,138,138,138,139,141,140,137,136,136,134,133,134,132,135,137,135,136,139,138,138,135,134,135,140,141,142,141,141,138,137,139,137,136,137,138,142,139,135,136,138,135,131,132,133,131,130,132,131,129,128,128,124,124,123,123,124,123,123,122,123,123,121,122,126,126,129,131,128,129,126,121,120,123,121,119,119,117,116,121,120,121,124,123,122,121,124,124,125,123,122,122,123,124,123,123,124,125,125,124,124,126,126,125,125,124,125,126,125,123,126,126,127,127,126,126,126,128,126,129,128,126,129,128,126,124,123,125,127,129,130,127,127,127,129,130,130,129,128,128,131,125,126,131,131,130,131,130,130,129,129,127,127,127,128,126,114,108,110,115,122,133,138,138,142,145,146,146,151,157,159,163,169,179,185,193,199,208,212,192,166,150,134,119,117,121,129,142,147,140,124,108,113,125,133,132,115,103,109,114,120,114,105,99,88,86,83,85,85,92,100,113,123,137,154,158,153,144,147,144,145,151,152,153,151,152,152,152,147,133,112,97,82,75,75,80,88,86,80,79,78,78,89,93,104,106,111,125,128,115,99,93,94,96,101,98,90,78,68,67,68,70,78,84,94,96,86,78,73,72,69,63,59,58,57,58,60,60,61,62,61,62,65,58,58,58,56,58,57,57,56,55,54,56,52,53,54,50,52,53,54,53,51,52,51,53,53,52,52,52,52,49,49,51,50,50,51,50,48,48,46,46,44,46,46,45,47,46,45,46,45,45,45,46,47,43,44,43,44,44,42,44,42,39,40,42,41,40,42,42,39,39,39,41,40,42,41,42,40,38,41,40,40,39,39,39,38,37,36,37,36,35,38,37,37,36,35,35,34,36,36,33,32,31,33,34,34,32,34,31,30,31,31,30,31,31,30,29,30,30,29,29,31,30,29,31,32,32,31,30,30,31,31,31,30,33,30,29,28,31,30,29,29,32,31,29,29,28,28,28,28,29,30,26,26,25,26,25,23,24,24,24,24,24,23,23,23,25,23,23,23,23,22,22,21,21,22,21,21,23,22,21,22,21,20,20,21,22,21,21,21,21,20,21,21,20,20,20,20,20,19,18,19,18,19,19,19,19,17,18,18,19,19,18,17,19,18,17,17,18,19,20,20,20,19,17,16,15,15,13,13,16,16,16,15,15,13,14,17,16,13,13,13,12,14,13,11,11,12,12,10,10,10,11,12,14,15,15,17,16,14,13,15,15,14,14,15,13,12,11,9,10,8,7,7,7,8,9,8,8,7,8,8,7,8,7,7,8,8,8,6,6,8,8,7,10,12,9,10,12,11,13,11,10,12,13,14,12,7,9,12,14,14,13,13,12,11,9,11,11,10,10,10,9,9,10,10,11,11,12,13,12,13,14,14,14,12,12,11,8,11,15,12,11,12,12,13,14,14,15,11,10,12,12,13,13,12,11,14,14,11,11,12,12,12,11,8,8,7,8,8,8,9,10,10,11,10,12,13,12,11,10,9,10,11,11,10,10,10,11,13,13,14,14,14,14,13,11,9,9,6,8,11,10,8,10,9,9,10,12,12,11,12,11,11,10,12,11,12,15,13,11,8,10,11,11,12,12,12,11,11,13,14,12,12,12,13,11,12,11,11,10,8,8,7,10,9,10,10,9,11,11,11,13,15,12,13,13,13,13,13,11,12,13,13,13,12,12,13,13,12,12,10,12,13,14,12,12,13,11,12,13,12,10,13,14,13,13,13,14,13,13,12,13,13,13,14,13,13,12,12,12,13,13,13,10,10,10,10,10,8,8,9,10,9,7,8,11,12,11,10,10,11,12,13,14,14,14,13,15,14,12,12,13,14,14,14,13,15,13,13,15,14,14,14,15,15,14,14,14,12,12,13,13,15,11,12,12,15,13,13,14,15,13,15,15,16,15,14,15,15,13,13,12,14,14,12,13,13,14,14,14,13,15,15,13,14,14,16,17,18,17,17,15,12,14,16,16,15,17,16,15,15,14,14,14,15,15,14,13,14,16,18,16,14,14,15,16,16,16,16,17,19,20,17,15,13,13,14,17,22,24,23,22,22,21,19,16,15,19,21,22,20,18,16,17,17,17,16,17,17,16,17,16,17,17,15,15,16,15,17,18,18,17,17,17,16,17,17,16,16,17,18,17,17,17,18,18,18,19,19,19,19,19,19,18,19,20,19,19,18,18,18,18,18,19,19,17,17,19,20,19,21,20,20,20,19,18,20,21,20,19,20,20,19,19,19,20,20,19,20,20,19,20,20,20,20,19,20,18,20,21,20,19,19,19,20,20,21,20,19,19,19,18,19,19,19,21,20,19,19,20,19,18,19,20,19,19,17,17,19,18,17,17,18,19,18,18,18,18,19,19,18,20,17,16,19,21,18,20,21,21,19,18,17,17,18,18,17,16,14,15,16,15,13,13,13,12,13,13,13,14,15,14,15,14,15,16,15,15,15,15,14,13,14,15,14,15,15,16,17,15,16,16,14,13,13,13,15,13,15,14,14,14,14,16,18,16,14,13,14,15,14,13,15,14,14
189,191,191,200,215,219,217,211,209,212,207,200,198,194,189,185,182,181,180,179,178,177,177,179,186,183,174,170,168,168,169,169,166,165,167,172,178,181,181,181,181,181,185,193,202,204,201,188,177,175,181,196,202,199,183,164,155,148,144,141,138,138,139,139,141,140,142,143,143,141,142,139,140,142,139,141,141,142,140,136,135,139,138,138,139,138,138,137,135,137,135,133,136,139,140,142,141,141,138,138,139,137,137,138,140,139,137,134,138,136,134,136,134,135,133,131,133,130,127,128,127,125,125,122,121,124,122,121,122,123,122,124,124,125,126,130,130,129,125,119,120,122,122,122,121,123,121,119,123,123,122,123,123,121,123,124,122,125,123,123,125,124,124,124,122,123,124,123,123,125,126,126,127,127,127,128,129,128,127,127,127,127,124,123,126,129,132,131,131,130,127,129,127,128,127,125,123,123,127,127,128,132,129,130,131,129,129,129,130,129,125,124,132,131,131,131,131,131,130,128,129,128,128,128,125,114,109,110,115,122,137,139,142,146,152,153,156,161,162,165,169,178,187,194,204,209,207,198,182,155,139,125,122,136,138,144,156,157,141,121,110,123,137,146,141,127,115,122,133,131,118,109,95,86,85,83,82,86,90,92,101,114,129,150,161,153,152,159,153,152,158,157,158,159,158,156,150,135,110,97,87,79,75,82,94,93,93,86,85,83,82,87,95,109,121,126,129,124,113,108,111,117,116,110,92,81,73,72,79,79,75,78,84,95,101,90,82,79,83,79,73,66,61,59,57,59,61,60,59,59,59,65,60,57,57,59,60,58,56,57,56,56,55,54,52,53,55,54,53,52,51,52,54,54,52,52,52,52,51,51,52,52,51,49,48,45,46,47,44,45,45,46,47,46,47,46,49,48,46,44,45,44,44,43,42,44,43,43,45,45,44,45,42,40,41,43,45,41,43,41,41,42,38,40,40,40,40,39,39,40,39,39,36,37,41,37,35,35,36,36,37,38,37,32,33,35,36,35,38,35,35,34,32,32,33,35,34,34,34,33,32,32,31,29,30,31,31,31,32,33,31,30,31,32,32,32,33,32,31,32,33,32,32,32,31,30,30,29,30,30,31,30,31,28,29,30,28,29,30,28,28,27,25,26,25,24,26,24,25,25,25,25,26,25,24,25,25,24,24,23,21,22,23,21,21,23,23,22,20,21,22,22,22,22,21,21,22,22,23,22,20,20,19,20,23,21,20,20,20,19,21,20,20,20,19,19,20,19,20,18,18,18,17,18,17,16,16,17,19,19,21,22,22,19,17,14,15,15,15,15,15,17,19,16,15,16,16,15,15,14,13,14,11,11,13,14,12,12,10,11,11,12,11,10,11,13,13,15,16,15,15,16,16,16,16,15,12,12,11,8,9,9,10,8,7,9,9,9,8,8,8,8,8,7,7,8,7,8,7,7,7,9,12,11,10,11,10,10,12,12,13,10,11,13,13,13,12,10,10,11,12,12,12,11,11,10,11,11,11,11,11,10,11,10,11,12,12,11,11,12,12,11,13,14,14,12,10,9,10,7,13,14,11,12,12,12,12,13,12,13,13,14,15,15,11,10,10,10,10,12,11,12,13,12,10,11,8,9,10,11,11,11,7,8,8,7,11,11,12,12,11,9,9,10,9,10,9,12,13,13,13,15,19,19,16,15,11,9,10,7,11,12,11,11,10,8,10,10,10,11,11,13,12,12,13,12,13,12,14,12,11,11,11,11,11,12,14,14,11,9,11,13,12,12,12,12,13,14,12,11,11,9,10,11,9,7,9,10,8,9,12,13,13,13,14,13,12,13,13,15,14,13,13,14,11,11,13,11,10,11,11,11,14,16,13,14,14,10,10,11,12,14,12,13,12,12,12,13,15,18,17,15,14,15,15,15,14,13,13,14,13,12,12,12,11,10,11,9,9,10,8,7,8,9,10,9,10,10,10,10,9,11,12,13,15,13,15,15,14,13,14,14,14,15,15,15,14,14,12,13,14,15,15,15,14,14,17,15,15,13,15,15,13,12,13,13,13,18,14,15,14,16,14,13,13,15,13,13,13,13,14,15,14,14,12,13,13,14,13,13,13,15,16,15,16,16,16,15,15,14,15,16,15,11,14,15,17,15,15,15,15,14,13,13,14,14,15,15,14,15,16,17,16,15,15,16,14,14,15,16,16,17,16,15,14,13,13,16,15,20,26,26,25,25,25,23,21,19,19,19,19,18,16,16,16,17,18,18,16,15,16,15,16,19,17,16,17,17,17,16,18,19,18,17,17,17,17,18,17,16,16,16,16,18,18,18,19,17,19,21,21,20,18,18,18,18,19,19,19,19,18,19,18,18,18,18,18,18,16,17,16,19,20,20,20,19,19,19,19,20,21,22,20,20,20,19,20,19,19,19,20,20,19,20,20,20,20,21,20,20,18,18,19,19,19,19,20,21,22,20,19,19,20,19,20,20,20,19,18,19,18,18,19,20,24,24,20,18,18,17,19,20,20,21,20,17,17,17,17,17,20,20,18,18,19,22,22,19,20,19,19,19,19,17,17,20,18,16,13,13,14,14,12,11,11,11,12,13,14,14,16,15,15,15,15,15,15,15,13,14,15,13,14,14,15,14,15,13,14,14,14,15,15,14,13,14,15,15,14,15,15,13,14,16,16,17,16,16,14,14,15,15,14,14,15,14
191,192,193,198,203,205,206,200,197,196,192,190,188,187,186,183,189,190,185,182,179,180,181,186,182,177,171,170,175,174,172,169,170,169,168,173,175,175,183,191,192,186,190,194,213,226,215,194,186,188,185,185,191,189,187,186,189,183,157,145,142,141,139,138,140,142,147,147,144,141,146,149,144,141,142,140,139,138,138,138,137,141,140,141,141,141,138,138,137,137,137,136,137,140,142,140,138,139,139,137,138,139,138,139,141,138,139,138,136,133,132,133,132,132,133,134,134,133,128,129,128,128,127,125,127,127,124,123,126,124,121,127,126,124,126,128,127,128,127,123,122,123,121,120,122,122,122,124,127,127,123,121,123,122,123,123,121,124,124,123,124,125,124,123,122,124,126,125,123,123,123,125,125,124,127,131,130,128,127,128,129,125,122,128,128,129,130,131,129,128,127,127,128,129,127,125,126,125,128,126,127,126,128,132,133,127,127,128,130,128,127,124,129,131,131,134,132,129,129,127,129,128,128,125,121,112,110,112,117,120,130,140,145,150,157,158,160,169,173,176,182,192,199,209,214,205,191,179,169,150,132,127,136,147,150,159,167,167,149,123,114,125,136,141,144,134,128,137,145,134,118,104,89,84,83,83,86,94,101,100,98,105,115,133,153,151,154,161,161,162,164,166,166,166,165,158,144,129,114,96,82,77,78,89,107,109,98,93,99,94,84,92,101,114,134,145,142,139,132,125,123,123,114,103,87,74,72,82,93,97,86,80,89,95,103,101,91,84,93,94,86,78,70,64,62,61,60,61,61,59,59,59,56,54,57,60,59,57,58,57,56,56,55,54,54,55,54,53,54,55,55,54,53,53,52,50,50,52,51,52,51,51,50,51,50,48,45,47,48,48,49,48,47,45,42,44,46,46,45,46,46,44,44,44,45,46,45,45,47,46,43,42,41,41,43,43,43,43,43,44,40,41,41,40,41,40,39,38,39,39,38,39,37,38,38,34,37,38,39,37,36,37,36,35,35,34,34,34,35,33,35,34,32,33,33,33,32,31,30,31,31,31,30,30,31,32,33,32,32,32,31,32,32,32,30,30,29,29,31,32,32,30,30,30,30,31,33,32,30,31,32,30,30,30,29,31,29,28,30,27,26,26,26,27,27,27,26,24,24,26,27,26,25,25,24,25,23,24,24,24,22,22,23,22,22,22,23,23,23,22,21,24,23,22,23,23,21,19,21,21,21,22,21,22,22,19,19,19,20,21,21,20,19,20,19,18,18,20,20,19,18,17,15,16,17,16,15,16,18,18,21,21,19,19,18,16,15,14,16,15,15,16,18,18,16,17,17,14,13,13,13,13,12,13,14,14,13,13,13,14,14,15,14,11,11,12,14,14,14,15,17,17,16,16,15,13,12,10,9,8,9,9,10,12,11,9,7,8,8,7,6,9,8,9,8,6,6,9,10,9,9,8,12,12,12,11,11,9,9,10,11,11,10,11,9,10,11,12,13,12,9,13,13,12,10,10,11,12,13,12,12,9,9,9,12,13,13,12,8,8,9,10,10,9,10,12,13,14,14,12,13,13,14,14,15,16,17,17,16,14,11,9,13,14,12,11,11,13,12,13,12,13,13,13,8,8,10,9,10,11,10,10,10,12,13,12,10,9,10,13,12,10,11,10,11,12,10,13,13,12,15,16,15,14,14,14,9,9,11,11,12,13,15,11,11,8,8,11,9,10,11,12,13,11,11,11,12,11,11,10,11,12,12,10,10,11,10,12,11,8,9,12,11,12,12,13,13,14,13,13,11,10,8,8,9,10,9,8,8,8,10,12,13,12,13,12,13,14,15,13,13,15,15,12,12,11,12,13,13,12,12,12,13,14,12,15,14,12,12,14,14,11,13,15,13,13,14,14,17,17,13,15,14,12,14,14,14,14,14,15,13,11,12,11,11,11,11,11,9,8,9,6,7,9,10,8,7,6,6,7,8,8,9,10,12,13,13,14,12,13,15,15,14,14,14,14,15,14,15,14,13,14,14,15,15,17,17,16,17,18,16,13,12,14,13,12,13,13,14,16,16,14,15,16,14,14,13,14,14,14,14,16,15,13,15,15,14,14,12,12,13,12,14,15,15,15,17,15,15,16,16,16,16,14,14,14,15,14,15,16,14,14,15,15,16,16,17,17,15,14,14,15,16,17,14,15,15,16,15,16,16,15,13,14,15,15,16,17,15,17,19,19,17,20,25,25,21,15,15,16,16,17,15,16,15,18,20,18,15,14,16,17,17,17,17,18,17,18,18,18,18,20,20,18,17,17,17,17,17,16,17,16,17,18,18,18,18,18,18,19,19,19,19,18,17,19,19,18,18,20,19,19,19,18,17,16,17,18,16,17,17,19,20,21,20,20,20,21,20,21,23,22,22,21,21,20,19,18,18,20,20,20,21,20,21,21,20,20,19,19,20,20,20,21,19,20,21,21,20,19,21,22,21,21,22,24,23,19,19,21,20,19,20,21,20,22,22,19,19,19,19,20,20,19,18,19,19,18,19,18,17,20,21,21,21,21,22,20,19,18,17,16,16,13,14,15,14,13,12,13,13,11,13,14,13,15,16,16,16,17,16,15,15,14,15,15,15,16,15,15,14,13,15,15,14,15,14,13,14,13,13,14,16,14,14,13,13,15,15,15,14,15,14,16,16,16,16,18,19,16,16,15,14,16,15,14
193,193,194,195,197,200,201,198,195,195,193,192,192,191,194,199,202,197,192,185,183,189,188,183,177,172,172,177,181,178,180,178,171,170,168,166,166,169,185,203,208,197,202,215,218,213,208,204,210,213,201,185,186,188,198,210,216,202,181,169,157,152,142,139,139,142,145,142,139,143,147,145,144,146,144,138,137,138,138,139,140,143,144,144,143,141,139,140,137,138,138,139,137,137,140,141,138,139,139,139,138,137,140,143,143,142,139,136,134,136,135,134,135,133,133,131,132,132,131,127,126,128,128,127,127,125,125,123,125,124,124,126,128,126,125,126,127,128,125,125,125,122,120,118,119,121,123,124,125,124,121,122,122,122,124,125,124,124,123,123,125,125,124,124,124,124,125,126,126,128,125,123,124,126,128,129,130,129,129,130,129,126,125,129,131,130,131,130,129,128,128,128,127,128,129,129,128,127,129,130,129,130,130,129,132,130,129,130,132,130,127,124,126,133,133,133,133,132,130,128,130,130,130,126,113,109,110,117,122,125,131,134,143,152,157,160,164,170,178,187,194,196,204,211,205,192,175,156,145,135,131,141,147,152,157,165,173,168,147,125,121,132,139,145,147,141,141,144,149,139,116,96,86,85,83,87,97,106,114,119,115,114,114,124,140,148,158,165,167,167,169,169,168,169,169,160,149,136,113,91,78,78,84,99,113,111,97,99,104,97,89,95,114,126,144,156,149,136,129,120,106,96,94,93,82,71,73,90,103,104,94,86,93,108,116,108,94,93,105,106,94,85,74,70,71,67,64,62,63,63,62,58,57,59,60,59,59,58,57,57,55,56,58,55,55,55,55,55,55,56,55,55,53,53,51,51,51,50,52,53,51,51,53,50,50,48,45,47,47,48,49,49,48,47,45,45,43,45,45,46,45,44,45,45,46,46,46,44,46,44,44,45,44,42,44,46,42,42,42,42,43,42,41,40,41,40,39,37,41,39,39,39,37,39,37,37,37,36,36,35,35,38,35,35,35,35,34,36,37,34,35,36,35,34,34,33,32,33,32,32,30,30,31,30,32,33,33,32,32,32,31,32,31,31,30,30,29,28,32,33,31,29,29,30,29,28,31,31,30,30,31,30,30,29,28,31,31,27,28,28,28,28,26,26,27,30,27,24,24,26,26,25,26,26,25,23,22,23,24,26,24,23,23,25,23,22,20,21,24,22,23,23,21,23,23,21,20,20,22,21,20,21,21,21,19,18,20,19,18,19,20,21,20,18,17,19,20,20,19,19,19,15,15,15,16,16,18,17,17,17,18,18,17,15,15,15,14,14,15,15,16,16,15,14,15,16,16,15,13,11,13,14,15,14,13,13,14,13,13,13,15,14,12,11,11,12,13,13,15,15,17,15,14,16,14,12,10,10,8,9,9,9,9,11,11,11,8,9,9,10,9,9,8,7,7,7,8,9,9,9,10,10,15,12,13,13,11,11,12,12,14,15,13,12,11,12,12,13,12,10,10,12,13,12,12,10,10,14,14,12,11,10,9,12,13,14,13,12,12,9,5,8,13,13,11,12,14,14,14,15,15,16,16,17,17,17,17,16,13,11,12,13,13,13,12,14,12,12,12,13,11,13,15,11,10,9,9,11,13,13,10,10,15,19,18,13,10,13,15,15,15,14,13,14,11,11,11,10,12,12,13,12,10,11,13,11,11,10,10,13,11,10,10,9,11,12,11,10,11,13,11,10,12,12,13,12,11,14,14,12,13,13,14,10,11,14,13,13,11,10,10,11,12,12,13,13,12,15,15,15,14,13,10,10,12,12,11,10,9,9,9,9,11,11,13,12,12,13,13,13,11,13,14,12,12,12,13,13,12,11,11,10,13,12,12,14,16,14,14,16,16,14,14,15,14,16,14,14,14,13,14,14,14,14,13,14,14,15,15,14,13,14,13,11,10,11,11,11,10,10,9,9,8,7,7,6,6,7,6,6,6,9,10,9,10,10,12,12,13,13,13,12,12,13,13,13,15,17,15,15,14,13,14,16,16,14,14,13,14,15,16,14,14,14,14,13,12,13,14,14,14,11,11,17,15,15,16,16,14,14,15,14,13,12,13,13,13,14,14,15,14,14,14,16,15,16,18,17,15,15,14,16,16,15,16,16,15,13,15,15,16,15,14,14,14,15,17,17,16,15,16,18,16,17,16,16,16,16,15,16,15,15,16,16,16,14,16,17,16,16,16,16,16,20,23,20,17,16,16,15,15,18,21,21,19,20,18,15,17,15,15,15,16,17,17,19,19,19,20,20,18,18,19,17,16,17,17,16,15,17,18,18,18,18,19,20,19,18,18,20,21,19,19,19,19,20,19,20,19,19,20,19,19,17,17,19,18,18,18,17,19,20,21,20,20,22,20,21,22,22,21,22,23,21,21,21,20,19,19,21,20,20,20,19,21,21,20,20,21,20,20,21,21,20,20,20,21,20,19,19,20,20,20,21,19,20,21,21,21,22,20,18,18,18,19,18,19,20,20,19,19,20,18,16,20,22,20,18,18,19,19,22,20,19,19,19,18,17,16,15,13,13,13,13,14,13,13,14,14,15,15,14,12,13,14,15,15,15,15,17,16,15,15,15,15,15,14,14,14,14,14,15,15,15,14,14,15,14,15,16,15,14,14,13,14,14,14,14,14,15,16,16,15,16,17,18,16,15,16,16,17,15,15,15,14,13
