15,14,13,13,14,10,10,10,9,9,10,10,10,13,13,12,12,13,13,13,14,16,15,15,16,15,14,16,18,18,15,14,14,15,14,15,17,17,18,17,18,18,18,18,18,17,17,16,16,15,15,16,16,16,18,18,17,15,15,16,15,16,17,16,15,17,17,16,16,16,16,15,14,13,13,13,13,14,13,11,11,11,12,11,10,11,13,15,15,13,13,13,13,14,14,14,14,15,16,15,15,16,15,15,16,16,17,17,15,15,15,16,16,18,19,20,21,21,21,22,23,24,25,26,26,26,25,26,27,27,30,31,30,27,25,27,28,29,31,31,32,35,35,37,37,34,33,31,30,30,29,30,29,29,29,28,27,26,25,24,25,25,25,26,26,25,24,24,24,23,22,21,20,20,20,18,18,19,19,22,24,23,25,28,29,26,25,25,24,23,24,23,23,24,26,27,28,29,30,31,29,30,31,32,30,31,31,32,31,31,31,30,30,30,29,28,28,29,30,31,31,32,30,30,29,30,32,33,33,34,35,34,33,31,30,29,26,25,28,31,32,34,35,35,36,36,31,29,30,31,31,31,32,35,35,33,33,36,37,37,37,35,34,34,34,36,36,32,28,25,25,25,25,26,26,25,27,30,35,35,32,30,30,32,32,33,32,33,33,33,32,32,31,29,31,32,30,31,30,30,30,31,30,30,30,30,30,30,30,30,29,29,30,30,29,27,28,29,30,30,31,31,31,32,32,31,31,31,31,29,30,31,31,32,32,32,32,31,30,30,30,30,32,30,30,31,31,32,30,30,29,28,29,30,31,31,32,34,36,35,35,34,34,34,33,32,32,33,35,37,38,36,34,34,34,36,36,35,35,36,34,34,33,31,27,27,29,30,33,35,36,36,36,36,37,34,32,33,33,31,29,29,30,29,29,31,32,34,34,37,38,39,39,38,38,40,42,42,42,40,42,43,40,37,38,41,40,38,38,37,36,36,35,36,38,39,42,43,39,38,39,39,39,40,40,39,40,43,44,43,44,44,47,49,50,51,51,51,48,45,45,40,28,27,35,49,57,56,53,53,52,54,57,59,59,59,56,56,56,58,61,66,65,62,59,53,51,52,55,57,58,59,58,57,57,60,61,61,60,62,63,63,63,62,61,59,59,60,59,58,53,42,35,31,36,42,49,55,57,53,52,52,55,57,59,59,58,58,57,51,32,12,7,10,10,14,10,3,2,1,0,0,0,1,2,1,1,0,0,0,0,-1,0,-1,-1,-1,0,0,-1,-1,-1,0,-1,-3,-3,-1,3,7,9,12,13,16,25,32,37,42,46,50,53,54,55,57,57,55,53,49,45,42,46,48,47,43,39,34,38,57,75,83,86,85,84,82,82,87,89,89,85,76,78,85,88,88,90,91,94,93,92,92,92,95,101,103,103,105,104,105,106,107,107,107,107,107,108,110,110,109,107,105,102,99,94,88,79,70,63,51,45,45,46,47,49,51,53,56,58,57,55,55,59,63,68,70,72,70,68,64,61,60,61,63,66,70,73,76,78,79,79,80,79,78,78,76,73,67,61,58,59,64,69,80,99,118,130,137,138,134,130,129,129,128,126,120,113,103,91,80,71,63,55,51,49,49,51,53,55,57,58,59,62,65,64,63,64,63,64,65,66,67,68,70,72,73,76,78,81,85,91,106,122,142,156,166,173,175,172,168,160,151,140,127,113,102,95,90,86,82,79,75,71,69,67,65,64,63,63,64,62,60,61,62,62,64,71,79,85,89,90,92,96,101,107,112,113,112,111,110,110,112,111,106,99,93,88,89,91,92,93,92,90,88,85,79,73,67,62,55,48,47,57,71,84,90,94,96,97,94,92,88,84,79,76,71,65,60,57,54,47,39,29,17,7,3,2,1,0,0,-1,-1,-1,-1,-1,2,4,6,8,14,19,24,29,34,39,43,44,44,38,33,37,44,51,57,63,69,76,82,86,85,79,77,79,82,85,87,91,95,99,102,105,107,106,102,96,89,80,72,68,70,74,78,86,97,110,124,134,143,145,145,141,132,120,112,103,95,89,83,80,75,71,67,64,61,58,57,59,62,64,70,80,90,97,106,114,119,122,123,119,111,101,88,77,76,83,94,105,115,120,116,105,88,74,67,68,70,72,77,84,90,91,86,80,70,66,69,74,79,83,84,87,98,108,118,125,129,125,115,103,93,90,91,94,99,103,107,109,109,107,110,115,120,126,131,133,130,123,110,99,91,86,84,81,78,76,74,76,78,82,87,93,101,108,110,111,112,112,111,112,113,113,111,106,100,94,88,81,75,69,63,58,54,49,46,47,51,58,63,62,57,51,53,58,62,63,63,64,63,65,66,67,67,68,69,70,71,72,74,76,79,83,88,93,94,96,102,113,121,128,131,128,124,115,106,99,93,88,87,88,85,80,75,72,69,72,75,76,79,83,92,102,105,104,99,89,81,74,69,65,60,56,55,56,58,60,62,62,61,60,63,65,69,71,73,74,75,80,90,93,94,93,94,95,93,90,85,80,78,80,82,83,86,92,95,99,102,104,104,100,95,92,89,85,80,75,72,70,67,64,60,57,53,51,50,54,59,60,56,50,46,45,47,54,59,55,46,49,60,63,61,56,49,46,50,56,55,54,60,66,69,68,63,58,55,59,65,68,70,69,66,66,66,66,65,61,55,46,39,40,42,38,33,28,22,18,12,9,5,4,2,1,0,0,1,0
15,15,15,14,12,10,9,9,8,9,10,9,11,13,11,13,13,13,13,14,15,15,16,16,16,16,17,15,15,17,16,15,15,15,14,14,15,18,17,18,19,19,19,20,19,19,19,18,19,19,19,18,18,19,20,21,21,20,20,20,19,20,20,19,20,21,21,21,21,20,19,17,16,17,16,16,15,15,15,14,14,14,13,13,12,12,11,12,14,13,13,14,14,13,13,13,13,15,16,16,17,16,16,16,16,16,16,16,15,16,17,16,17,18,20,21,23,24,25,25,26,27,28,29,29,29,29,30,31,31,32,32,32,28,27,29,29,31,31,33,34,34,37,38,37,34,33,31,30,30,30,29,29,30,29,27,26,25,24,26,27,26,26,26,25,24,24,23,23,22,21,21,21,21,20,20,20,22,21,22,23,22,26,28,29,29,26,25,25,25,24,24,24,26,27,28,29,30,30,29,31,32,32,33,33,32,32,31,31,31,30,30,30,31,30,30,30,30,30,30,30,29,31,32,32,31,30,31,30,31,32,33,35,34,34,31,29,30,31,31,31,29,30,35,38,37,35,34,34,31,32,32,31,31,35,35,35,37,37,36,36,35,35,35,36,35,34,31,26,24,24,26,26,26,27,27,27,29,33,33,32,31,32,32,33,34,34,35,34,34,34,35,33,31,32,33,33,33,31,28,29,31,31,33,32,32,32,31,31,32,30,31,32,31,31,29,30,31,32,33,32,33,33,33,33,32,33,34,31,31,32,35,36,34,33,33,33,32,32,31,30,31,32,32,31,32,33,33,32,32,31,31,30,32,33,33,35,37,38,38,39,38,36,37,36,35,35,37,37,38,39,39,37,36,37,37,37,37,36,38,37,36,33,30,30,30,31,33,34,36,40,40,40,40,37,33,33,34,33,31,31,30,30,30,31,31,32,33,35,37,37,39,39,39,40,39,40,42,42,42,43,44,40,37,40,42,40,38,39,40,39,39,39,39,38,39,42,47,46,44,45,46,46,46,45,45,45,46,47,47,48,49,52,55,56,57,56,57,55,51,47,40,34,36,42,49,56,58,57,57,57,59,61,63,64,64,63,60,60,63,65,65,64,64,64,60,57,55,56,59,62,63,63,62,63,64,65,65,66,66,67,67,67,67,66,66,66,66,61,53,43,35,34,40,46,51,55,55,55,57,59,61,64,65,64,65,64,60,55,38,18,10,18,29,30,31,28,16,5,0,0,0,1,1,1,0,1,1,-1,-1,-1,-2,-1,-1,-1,-2,-1,-1,-1,-1,0,0,-1,0,-1,-1,-1,0,0,0,-1,-1,3,9,17,28,39,46,49,55,59,61,61,61,60,57,52,51,55,56,53,48,43,37,36,49,68,81,84,84,83,81,81,84,90,93,92,88,82,83,85,87,89,94,97,97,96,96,96,95,98,102,104,106,107,107,108,109,110,110,111,111,112,112,107,102,95,88,77,63,59,58,52,49,49,47,47,50,51,50,48,47,51,56,60,61,60,59,59,64,69,73,75,75,72,69,65,64,64,67,71,75,79,82,84,87,87,88,86,84,83,78,73,67,63,60,60,63,70,80,97,117,131,139,143,143,143,143,142,138,132,121,109,96,85,75,68,60,54,52,50,52,55,58,60,62,63,64,66,68,68,68,68,68,70,72,72,74,76,78,77,79,80,84,87,88,91,101,111,126,137,146,154,158,155,147,137,123,111,101,95,91,90,87,82,78,75,71,70,70,69,66,66,68,67,69,69,70,69,69,68,66,65,69,80,89,93,97,100,104,110,114,118,120,119,119,118,118,115,109,103,96,92,95,98,101,101,100,98,95,91,86,79,73,67,60,53,46,45,55,67,79,91,97,98,95,93,88,83,80,75,71,67,63,60,60,54,47,38,26,15,7,2,2,1,0,1,0,-1,0,3,4,5,10,18,26,31,36,39,42,46,51,53,52,47,41,45,51,57,64,70,76,83,87,89,89,84,83,86,88,91,94,98,103,106,109,110,107,100,90,82,78,75,75,74,76,79,83,90,101,113,126,136,144,145,140,131,116,98,88,82,78,73,69,63,60,61,62,62,62,63,65,67,67,66,67,71,79,94,107,115,122,126,128,125,117,104,87,80,85,94,104,111,118,120,114,101,84,72,68,73,77,81,84,89,94,95,91,82,72,67,68,71,77,84,89,94,101,110,119,125,127,121,110,98,96,96,96,98,102,107,112,116,118,118,119,125,129,132,132,130,122,109,98,96,95,94,91,89,86,82,76,73,72,72,72,77,82,89,95,102,107,110,112,113,116,115,113,111,107,102,96,90,83,77,70,64,57,50,47,48,52,58,61,59,55,52,54,61,66,69,72,72,73,74,76,77,76,76,76,75,74,74,75,75,76,79,83,88,91,98,106,114,122,128,132,132,128,122,112,103,93,85,80,79,79,77,73,72,71,75,79,84,90,96,108,113,113,110,102,95,88,82,74,67,62,58,57,56,56,57,60,63,63,65,66,67,71,74,77,78,78,81,87,89,89,89,90,91,90,88,83,80,76,74,75,76,79,87,91,90,91,95,102,101,94,90,85,81,78,77,78,78,75,73,70,66,63,60,54,49,50,59,61,57,53,48,43,43,46,47,43,44,52,56,56,51,45,43,49,53,50,54,62,67,68,65,59,52,51,58,65,70,71,69,65,63,65,68,68,67,64,60,58,58,59,57,53,48,41,34,25,16,10,6,3,2,1,1,1,0
14,14,15,14,12,11,9,7,8,9,9,9,10,11,11,12,14,17,15,14,15,16,16,17,17,17,16,16,16,17,17,18,18,17,15,16,16,15,15,18,20,20,21,22,21,22,22,22,22,23,23,22,22,22,26,29,27,25,25,25,25,24,24,24,26,27,28,27,25,23,22,21,21,21,20,21,20,19,18,18,18,18,17,15,15,14,13,14,12,13,14,14,14,14,14,14,15,15,16,17,18,17,16,17,16,17,18,17,17,18,17,18,19,20,22,25,27,27,27,29,29,30,31,32,32,33,34,35,35,34,32,30,30,29,28,30,30,31,32,35,36,35,35,34,36,36,33,31,31,30,29,29,29,29,28,27,28,28,28,28,27,26,26,26,26,25,24,23,23,22,22,23,25,22,22,22,22,23,23,23,24,25,25,26,26,28,28,27,27,26,26,26,26,26,28,29,31,33,32,33,33,34,34,33,33,33,34,33,32,32,33,32,31,31,30,30,31,31,32,31,29,29,31,32,33,32,32,31,31,31,33,35,35,37,39,39,37,36,37,35,34,32,34,37,37,36,37,37,38,37,38,38,37,36,37,37,37,37,36,35,36,37,37,38,37,35,31,27,26,27,26,25,27,28,31,32,31,31,33,33,33,31,31,34,36,36,35,35,35,36,35,35,34,33,33,34,33,34,33,31,30,32,33,34,34,34,33,32,33,34,34,33,33,32,32,31,30,31,34,34,35,35,34,34,34,35,35,35,33,33,35,39,39,35,35,36,36,36,34,32,31,32,32,33,33,35,35,35,34,34,32,31,30,32,34,35,36,38,39,39,37,35,34,35,35,38,41,41,38,38,39,39,38,37,38,40,40,40,39,39,38,35,32,32,32,32,35,35,35,35,39,42,41,38,35,32,33,34,34,34,33,33,33,32,32,32,33,34,36,37,37,39,40,40,41,42,41,41,40,40,43,47,41,40,44,42,41,40,40,40,43,42,40,41,41,43,45,49,53,53,50,50,51,51,50,50,50,51,53,54,55,55,56,59,61,59,56,55,51,44,41,39,42,47,50,54,60,61,62,62,62,63,65,68,69,69,68,66,62,65,68,67,67,69,68,66,64,63,62,63,65,68,69,68,67,69,70,71,72,71,72,73,72,71,70,68,63,55,48,41,36,35,40,48,55,58,61,60,61,66,68,68,68,66,63,56,47,41,33,19,10,15,30,38,39,43,50,44,26,9,4,2,-1,-1,-1,0,0,-1,-1,-1,-1,-1,-1,-1,-1,0,0,0,0,0,-1,-1,0,-1,-1,-1,-1,-1,1,4,5,3,1,0,2,9,22,34,41,47,52,58,61,64,65,63,59,60,63,64,61,55,48,39,38,48,66,79,84,83,83,83,83,84,89,94,96,97,90,84,85,89,91,95,100,101,100,99,101,102,102,104,104,107,110,111,111,112,113,114,114,112,111,108,97,84,71,60,51,49,50,50,51,51,56,59,59,58,57,55,52,49,52,59,61,63,64,64,64,65,71,78,82,82,78,74,69,66,66,70,73,78,84,89,93,95,96,96,94,92,87,82,74,68,63,60,61,66,72,79,93,115,130,139,146,149,150,148,144,135,122,109,96,82,72,65,62,57,55,52,51,53,58,62,64,65,67,69,70,71,72,72,73,75,76,78,79,80,82,86,89,94,96,99,98,97,97,101,112,121,128,132,133,131,129,122,112,102,98,94,90,87,84,82,78,75,75,73,75,74,72,69,70,74,76,77,76,77,77,77,77,76,73,70,72,80,88,97,103,108,114,120,123,125,125,125,124,122,119,112,105,99,98,102,105,108,108,108,106,102,97,91,85,79,71,63,55,47,41,43,51,61,75,90,97,95,92,86,78,73,65,58,51,46,44,44,45,45,40,33,21,11,5,2,1,2,1,0,-2,-1,3,4,5,8,11,12,16,22,25,27,29,35,50,59,57,52,53,59,64,70,75,81,88,93,96,94,89,87,90,94,97,100,104,109,111,112,111,103,86,77,80,83,84,85,84,82,82,88,93,104,115,127,137,142,142,134,122,104,90,83,81,77,73,69,65,66,70,73,73,73,74,75,76,76,75,73,71,72,83,95,107,119,126,129,127,116,100,86,88,97,104,112,118,123,121,113,100,86,75,72,76,82,86,91,96,98,97,90,80,71,71,74,74,75,79,86,93,100,109,116,123,127,123,111,100,99,102,103,106,108,112,118,124,127,130,131,133,135,136,134,127,115,104,104,107,108,106,102,98,91,84,77,72,72,71,69,69,70,72,73,81,88,92,96,101,107,110,110,110,109,108,103,97,90,83,72,64,54,46,46,49,52,55,57,54,53,53,54,60,66,71,74,77,79,81,84,85,87,87,85,85,84,83,83,83,81,82,85,90,95,103,111,119,128,133,137,138,134,127,117,105,95,86,82,78,75,75,78,80,80,84,91,96,101,112,121,123,122,116,109,98,88,81,72,64,60,60,60,61,62,64,66,64,64,65,66,68,73,79,82,85,87,91,94,92,91,90,91,91,90,88,87,86,81,78,75,75,75,76,78,77,75,77,85,90,91,88,84,79,71,66,66,70,71,72,72,68,65,61,56,51,47,51,57,55,51,47,43,41,40,43,43,42,42,45,47,45,40,38,43,44,44,52,60,62,61,57,50,43,44,51,58,63,64,64,60,55,57,62,64,65,63,60,58,59,62,65,65,61,55,46,34,23,14,9,6,4,3,3,2,3
12,13,13,12,10,9,9,9,10,12,12,12,13,13,12,13,13,14,14,15,16,16,18,21,20,18,17,16,16,17,20,19,19,18,18,17,17,16,16,17,18,21,22,24,24,24,25,26,26,26,26,27,28,29,31,32,29,29,33,30,27,30,33,33,33,32,31,31,27,27,27,27,27,25,26,25,25,26,26,25,24,22,21,19,17,15,13,12,12,13,14,14,14,14,15,15,15,15,16,15,16,16,18,19,17,17,17,17,17,17,17,18,20,23,25,28,29,29,31,33,33,34,35,34,34,34,33,36,38,37,32,30,31,32,32,31,32,31,32,33,35,35,36,37,37,35,33,31,31,30,30,28,28,28,28,29,31,30,30,29,28,27,26,26,25,23,22,22,22,21,23,24,24,24,24,23,24,24,24,24,25,28,28,27,27,28,29,28,27,28,29,28,27,27,28,29,31,34,35,34,34,35,35,35,34,34,34,34,33,34,33,33,32,34,33,32,31,32,32,32,31,30,31,33,34,33,34,34,32,32,34,35,37,39,39,40,41,41,39,37,37,38,39,39,40,38,39,38,38,38,37,37,37,38,38,36,37,38,37,36,39,37,37,38,34,30,29,27,27,26,26,26,29,34,35,36,34,31,31,31,31,31,32,33,34,34,35,33,33,33,34,36,36,35,34,35,36,35,34,34,36,36,34,34,34,35,34,34,34,35,34,33,32,33,32,32,33,33,36,36,36,38,37,37,37,37,37,36,35,35,35,39,40,38,37,38,38,37,36,35,34,33,33,34,35,37,38,37,37,36,34,33,33,33,34,37,38,40,41,39,36,35,36,36,36,38,42,39,38,36,37,38,38,38,40,40,40,39,39,39,37,34,32,32,34,35,37,38,38,38,42,44,41,37,34,32,34,35,36,37,38,37,36,36,37,39,40,39,38,38,39,41,41,42,42,43,43,40,37,38,43,43,39,43,48,48,47,45,44,46,46,46,47,47,48,50,51,51,55,57,56,57,59,58,56,57,58,58,59,60,61,60,60,59,58,55,49,42,37,38,43,44,48,52,54,56,61,65,67,69,71,70,71,73,74,75,74,70,67,71,71,70,71,73,71,68,67,69,69,69,70,74,75,73,72,73,74,76,77,77,76,76,74,71,63,52,44,39,40,41,43,47,51,55,60,64,65,64,69,73,72,70,68,59,47,31,19,11,8,7,7,14,31,46,51,56,63,66,60,41,23,9,3,0,0,0,-2,-2,-1,-1,-2,-1,-1,0,1,0,1,0,-1,-1,-1,-1,1,0,-1,0,-1,-1,1,8,11,9,3,0,2,6,12,19,26,33,40,50,58,65,67,68,65,65,67,69,67,61,53,43,39,44,61,76,86,89,90,89,89,88,88,91,96,100,101,95,91,92,93,97,98,98,98,99,102,103,105,106,106,105,107,111,112,115,117,118,119,117,112,101,82,65,55,51,50,53,54,54,56,58,65,68,66,65,63,60,56,50,51,58,63,67,68,68,68,70,74,80,84,86,84,78,75,72,71,72,77,84,91,97,101,105,105,104,101,96,91,84,75,69,64,61,63,67,71,77,87,107,128,141,149,151,150,145,139,127,107,92,83,75,72,67,65,60,56,53,51,53,57,63,65,67,67,69,71,72,73,73,74,78,81,83,84,87,91,96,101,106,109,111,109,108,109,109,117,124,126,129,124,116,109,103,96,92,88,87,85,84,82,79,78,78,80,79,80,80,77,72,72,80,84,85,86,87,88,89,88,84,80,75,73,75,81,88,96,105,112,118,123,126,129,129,128,126,123,116,109,104,105,109,112,114,114,114,112,109,102,96,89,81,74,67,60,53,46,38,39,51,62,76,88,88,81,74,64,54,46,40,36,30,25,25,25,27,32,34,28,18,9,4,3,1,0,0,1,2,2,3,3,6,8,10,10,9,11,12,14,16,27,53,66,63,59,64,71,76,82,87,92,98,102,102,96,92,95,99,103,107,111,114,117,117,111,101,87,81,83,87,91,94,94,91,89,91,96,105,115,125,135,140,139,131,117,100,91,90,88,83,76,68,65,69,77,83,85,87,87,87,87,86,83,80,77,75,77,82,94,109,119,126,124,116,101,92,96,105,113,119,122,123,119,111,97,85,78,74,77,83,91,97,102,103,100,91,79,73,76,80,81,81,79,81,88,95,105,116,122,124,122,114,106,104,107,109,112,116,120,124,129,135,139,142,144,145,142,136,127,119,113,116,117,117,114,107,100,89,79,73,73,72,71,69,69,68,69,66,66,69,72,75,80,89,98,105,107,108,107,103,95,84,70,57,51,50,49,51,54,56,57,56,55,56,57,57,59,61,62,64,68,72,75,79,82,88,92,93,94,94,93,92,91,90,90,90,93,97,103,112,122,132,137,141,142,138,129,117,106,96,90,85,82,78,80,86,91,98,101,104,109,119,128,130,130,127,119,109,96,84,72,65,63,64,65,69,70,71,73,74,71,65,63,64,70,78,80,84,87,93,99,101,98,98,99,98,95,94,94,95,93,89,83,76,72,69,70,69,69,68,67,68,72,75,79,79,77,72,65,59,57,57,60,61,59,56,53,50,47,44,43,45,45,43,42,38,37,34,35,35,36,35,34,36,35,34,35,36,37,37,43,50,52,49,45,42,38,35,36,44,50,53,54,50,44,46,52,56,56,55,54,46,44,50,57,63,64,64,57,47,34,20,13,9,6,4,3,3,4
13,12,11,10,9,9,10,10,10,11,11,12,13,11,12,14,14,15,15,16,15,16,18,21,22,20,18,18,18,17,18,19,19,20,20,19,18,20,18,17,18,17,20,25,27,29,30,31,32,31,30,30,32,34,34,35,32,33,35,32,31,34,37,37,38,37,38,36,32,32,33,33,31,29,30,30,29,29,29,29,28,25,23,20,18,18,14,15,15,14,14,15,14,14,15,15,15,15,16,15,16,15,14,15,14,16,17,17,17,17,17,20,26,30,29,30,31,33,34,35,37,36,34,34,34,35,34,34,33,31,30,30,32,34,33,33,33,33,33,34,35,36,36,34,34,33,33,33,31,29,29,28,30,31,30,30,31,31,31,30,29,27,27,26,25,24,23,22,21,24,25,23,23,25,25,26,27,27,27,27,28,29,31,31,32,34,35,33,31,30,30,30,29,28,28,30,31,33,35,35,36,37,36,36,36,37,36,37,37,36,35,35,34,35,34,32,32,33,32,33,34,34,34,34,34,35,34,35,35,34,34,35,37,37,37,40,43,43,40,38,38,38,38,39,38,39,38,37,39,39,38,38,39,40,40,39,39,39,38,38,39,38,37,38,32,27,26,28,27,27,28,30,32,35,35,34,35,33,32,32,33,32,33,33,34,36,36,35,37,37,37,38,38,37,37,38,37,36,35,37,41,42,39,37,37,38,37,37,38,37,37,36,35,36,36,38,39,37,37,37,38,38,37,38,39,39,38,37,36,35,38,41,40,39,40,41,39,39,40,40,39,38,37,34,35,37,39,40,40,38,36,34,32,33,37,38,38,40,41,39,37,37,37,37,36,38,40,38,36,36,38,41,41,40,41,42,40,40,39,37,37,35,33,36,37,38,38,40,40,41,41,43,39,35,35,36,36,37,39,40,40,41,40,39,41,44,44,43,43,45,46,45,45,44,44,44,44,43,40,38,43,41,38,43,52,57,58,55,54,54,51,53,54,54,53,53,54,57,58,59,60,62,65,64,63,64,65,65,66,67,67,65,63,59,54,47,41,35,36,46,51,52,54,55,57,58,62,67,74,75,74,74,74,75,79,80,79,76,73,75,76,79,82,80,74,70,73,76,77,77,75,80,81,78,76,77,78,79,80,80,78,76,68,55,47,45,46,47,48,51,55,59,63,65,69,71,68,69,73,75,73,68,55,35,21,14,15,19,22,28,28,21,22,38,51,60,65,71,76,73,60,41,28,16,8,3,1,0,-1,0,-1,1,1,0,0,-1,1,1,-2,-2,-1,-1,-1,-1,-1,0,0,0,0,5,12,11,5,1,5,13,20,24,29,34,40,49,58,66,71,73,73,70,71,73,70,64,56,48,43,43,47,59,72,84,92,96,96,94,93,93,94,99,103,104,103,98,92,93,96,100,104,103,104,105,107,108,107,106,108,110,111,115,119,121,119,116,107,91,73,60,55,52,52,57,60,61,65,66,66,67,67,68,68,63,58,52,51,56,62,67,69,71,70,72,77,84,89,92,92,89,84,79,75,74,80,88,95,104,109,111,111,109,105,99,91,82,72,66,63,63,65,67,71,78,88,106,124,138,144,145,141,133,126,113,96,81,73,69,67,66,63,61,58,53,51,53,56,59,61,64,67,69,70,71,72,73,74,77,79,81,84,87,93,97,103,108,112,115,117,118,120,123,126,129,131,130,123,114,107,98,94,90,88,88,85,83,83,82,85,86,86,87,86,84,80,73,73,84,93,96,98,98,99,99,96,91,85,80,78,82,86,87,90,94,99,109,119,125,129,131,131,129,126,119,112,111,113,116,117,119,118,116,114,110,104,97,88,80,73,64,59,51,46,40,37,37,48,63,73,75,69,55,46,38,32,28,24,18,13,12,10,9,9,15,22,21,13,6,2,0,1,2,0,1,1,1,3,10,15,19,19,18,17,16,16,15,18,37,61,71,70,71,77,82,88,94,100,105,107,107,104,99,98,104,109,113,118,122,123,121,114,103,92,86,83,84,93,99,101,102,100,99,100,109,118,128,134,138,137,131,119,106,99,96,93,87,76,67,67,72,80,88,94,98,99,99,98,97,94,90,86,83,80,82,91,101,112,121,123,118,105,97,102,112,117,120,120,115,106,94,84,79,77,78,83,88,95,103,106,107,105,95,83,76,78,85,88,87,85,83,85,90,98,109,118,124,124,118,109,105,108,113,118,122,126,131,136,141,147,152,151,150,146,139,132,125,122,123,121,118,112,105,96,84,76,74,74,76,78,77,76,73,70,67,65,62,61,62,66,69,74,82,87,90,92,87,75,58,51,50,53,54,55,58,60,60,59,57,57,62,64,63,63,64,64,66,67,67,68,68,72,79,86,91,95,98,99,99,97,93,91,90,92,97,99,102,110,122,132,138,141,140,130,117,105,97,90,88,87,88,90,93,100,108,111,118,127,131,133,132,127,122,116,104,88,77,69,63,62,66,75,81,83,83,81,75,72,68,66,67,71,76,79,85,93,99,105,105,102,103,104,104,101,98,98,97,95,91,84,78,72,68,65,64,63,64,64,63,62,63,65,65,65,64,63,57,55,54,53,51,48,47,47,48,49,48,45,44,44,44,47,49,49,48,47,45,43,42,39,37,37,35,33,31,31,30,32,37,39,37,35,32,32,31,30,31,35,39,41,40,37,37,43,45,47,49,43,34,29,33,44,51,58,63,61,55,44,30,20,14,11,9,5,5,4
12,10,10,11,11,11,11,11,12,12,13,12,14,14,14,13,14,15,16,16,16,16,16,18,20,19,19,20,20,20,19,19,18,20,21,20,20,20,21,19,18,18,20,24,27,30,32,35,35,34,33,34,35,36,36,38,38,39,38,36,36,37,36,35,36,38,39,38,40,40,38,38,37,37,36,32,31,31,31,29,28,27,23,19,17,16,16,16,16,16,15,15,14,15,14,16,17,17,17,17,19,17,17,17,17,17,18,19,20,17,17,21,30,36,33,33,34,34,34,35,36,34,33,35,35,36,35,32,31,31,30,30,31,34,34,35,35,35,34,34,33,34,33,33,32,33,32,32,32,31,31,30,30,31,31,31,32,30,30,31,30,29,29,29,28,26,25,24,24,28,30,27,26,25,27,27,28,28,29,29,30,32,34,35,34,34,34,32,33,34,33,32,30,30,30,31,32,33,35,38,39,40,41,43,42,41,42,44,42,39,36,35,35,35,35,34,34,34,33,33,33,33,34,34,35,35,35,35,35,34,34,36,36,36,36,36,39,41,38,38,38,38,38,38,37,36,35,35,37,39,39,38,38,39,39,38,38,39,40,39,40,39,37,36,30,27,28,28,29,30,30,31,34,35,35,36,36,35,34,33,33,33,34,35,35,36,37,38,38,37,38,38,38,38,38,39,38,36,35,38,40,42,42,40,41,42,39,39,40,40,40,38,37,36,36,38,39,39,38,37,39,41,40,40,40,40,40,40,40,40,41,43,44,43,43,42,42,40,40,40,40,40,39,37,39,42,42,43,43,41,40,38,36,38,39,37,38,40,41,41,41,40,37,35,36,39,41,39,37,37,39,40,42,42,43,42,42,40,39,37,37,35,38,40,41,40,41,41,41,42,43,43,42,41,41,40,44,45,46,46,45,45,45,46,46,47,46,46,46,47,51,55,53,49,49,48,48,48,46,47,47,45,40,43,54,60,61,61,63,60,58,59,60,61,60,60,64,67,66,66,68,69,71,71,70,70,72,72,72,72,71,69,65,59,50,41,35,31,36,51,55,58,60,59,60,63,68,75,81,81,80,80,79,79,81,85,84,82,80,79,84,88,91,89,82,78,81,85,85,83,81,84,86,85,82,81,82,83,83,83,82,74,56,46,48,56,60,60,60,62,64,68,71,75,78,79,74,75,78,75,71,61,40,21,26,37,42,46,50,51,45,35,29,29,42,60,73,76,81,83,81,74,63,48,32,19,13,10,6,6,8,9,5,2,1,2,0,-1,-3,-2,-1,-1,0,0,-1,0,-1,-1,0,2,10,10,3,2,8,15,20,26,35,40,45,53,61,67,73,77,78,76,76,76,75,69,62,57,51,48,47,46,49,58,70,84,94,98,98,99,98,98,100,104,105,100,97,96,95,98,102,103,103,105,106,107,107,109,111,113,114,116,118,119,117,114,103,85,71,61,56,53,53,57,62,66,68,70,71,74,73,72,72,65,59,54,52,59,66,70,73,75,75,76,81,89,94,97,97,97,92,87,81,78,83,91,100,108,113,117,118,113,105,96,85,75,68,64,62,64,67,70,75,79,89,105,122,132,134,128,119,105,98,92,85,77,72,70,67,65,62,61,59,57,52,53,55,58,60,65,68,71,74,76,77,79,80,83,83,82,83,86,88,90,97,103,108,114,120,124,127,131,133,134,134,130,123,114,106,99,96,95,95,93,90,88,87,87,90,92,94,94,93,90,83,75,75,86,97,105,107,107,106,103,97,91,85,83,86,92,93,94,94,94,95,101,108,115,124,131,132,131,128,124,120,119,120,122,122,122,121,118,113,105,97,88,78,72,67,63,62,62,57,51,42,33,36,50,61,64,55,45,38,30,23,18,16,17,20,24,23,17,11,8,11,17,14,7,4,1,1,2,1,1,1,2,4,14,29,36,33,27,25,23,20,17,20,32,40,46,52,62,69,76,86,97,104,110,112,113,111,104,101,106,113,119,124,126,127,124,118,109,98,91,89,87,88,96,104,108,109,110,110,115,124,132,138,141,140,134,126,118,112,105,98,87,74,68,71,77,84,91,99,104,106,108,108,105,103,98,93,87,82,85,93,102,111,120,124,122,116,107,109,116,119,117,111,98,87,82,81,82,83,85,88,93,100,108,112,112,108,100,89,80,81,88,92,94,92,90,90,94,99,106,115,120,122,121,117,109,108,114,120,127,132,138,143,148,151,154,155,153,147,143,135,130,128,126,120,113,106,101,93,83,78,76,77,85,90,93,91,84,79,74,71,68,66,65,64,62,63,64,64,65,66,63,56,51,54,55,57,59,63,65,65,63,60,58,60,65,69,71,72,73,74,75,75,75,75,74,73,72,75,80,88,97,100,102,100,98,96,97,98,98,98,97,100,107,119,131,139,140,135,126,112,100,94,95,98,102,103,106,113,120,126,133,138,137,133,127,119,112,106,95,83,74,71,65,64,70,82,90,91,89,85,78,73,71,70,70,74,78,82,88,96,103,106,106,107,108,109,108,101,99,94,90,87,84,80,76,70,68,72,76,74,71,66,62,60,59,57,55,55,56,56,53,53,52,54,56,58,62,67,71,72,70,68,67,67,70,71,71,70,68,66,64,62,61,60,57,51,48,44,40,36,32,32,31,30,29,28,29,28,27,26,26,25,25,25,27,25,25,27,28,28,27,24,21,20,19,25,32,34,37,39,42,39,35,31,22,16,16,13,11,9
10,11,11,12,13,12,12,11,11,12,13,14,15,15,14,14,14,14,17,19,20,19,18,18,18,19,20,21,21,21,21,20,22,23,23,23,22,21,20,19,18,19,21,22,24,28,31,35,35,35,36,38,39,40,40,41,42,43,45,43,41,39,38,39,40,40,42,41,42,43,42,40,40,39,37,34,32,32,31,29,27,28,25,20,19,18,19,18,18,17,17,17,15,14,16,19,19,19,20,22,23,26,24,21,20,20,20,18,17,17,18,20,27,35,33,32,33,34,32,33,35,34,35,35,35,35,34,31,32,32,31,30,30,34,36,36,36,36,36,36,35,33,33,33,33,33,33,32,32,33,34,33,33,34,33,33,34,33,31,30,29,30,30,31,30,28,27,25,25,30,31,27,27,26,27,29,30,31,31,33,35,34,33,34,34,34,35,34,34,34,34,33,32,33,33,34,36,39,40,42,42,44,47,49,47,48,48,48,46,44,40,37,36,36,36,37,35,35,35,35,35,35,35,35,36,36,35,35,35,36,35,36,37,36,36,36,37,38,38,38,38,40,41,40,39,38,37,39,40,41,42,40,38,38,39,39,38,39,41,39,39,38,36,32,28,28,29,27,30,32,33,34,36,37,36,37,37,36,36,35,35,36,36,37,37,36,37,39,40,40,41,41,41,40,40,39,38,36,36,38,41,47,44,43,45,46,43,43,41,43,44,42,41,39,40,39,40,43,43,42,40,41,43,42,42,42,43,42,46,46,45,48,49,48,47,45,46,46,46,45,44,43,42,39,39,42,44,43,42,41,41,40,40,41,41,40,39,39,41,42,44,46,41,37,37,40,41,40,39,39,39,40,41,43,45,44,43,44,43,41,42,45,45,44,44,45,45,45,45,45,45,44,42,44,46,48,50,50,51,51,51,51,52,52,52,52,53,52,52,51,52,55,57,54,51,50,49,47,47,49,49,44,40,38,38,40,45,53,60,62,62,65,67,68,69,71,72,74,74,74,75,78,79,78,77,78,78,78,77,76,75,70,64,56,48,40,35,31,33,47,57,62,64,63,66,72,75,79,84,89,88,86,85,84,87,90,90,88,88,86,86,89,92,92,91,89,91,93,92,88,89,90,91,90,88,86,85,86,86,88,84,68,52,47,54,63,68,70,73,74,75,78,81,85,89,86,80,82,81,76,71,54,33,24,39,52,56,60,61,58,53,48,41,33,38,55,71,80,86,88,85,80,70,57,46,35,31,29,27,24,19,14,10,5,2,2,2,1,-2,-1,-2,-2,-1,-1,-2,-2,0,0,0,2,9,10,3,2,7,15,21,26,33,40,46,53,61,68,74,80,82,82,81,81,80,76,70,64,60,56,54,53,52,51,53,61,74,88,99,103,103,102,102,103,103,102,102,103,100,98,99,101,104,106,108,109,110,113,115,117,119,120,120,118,116,111,101,85,71,62,57,53,54,58,63,68,73,76,77,78,79,78,74,70,62,57,55,63,67,72,77,79,81,80,81,90,98,103,104,104,101,94,90,85,87,95,104,112,117,118,115,109,98,86,76,71,67,65,66,68,70,73,77,81,89,103,117,124,122,112,98,85,79,77,75,73,70,67,65,63,60,61,60,58,55,53,53,57,63,68,70,75,80,82,84,86,86,88,89,89,90,89,91,91,94,96,99,104,111,118,125,133,137,138,136,131,123,115,108,103,102,102,101,100,97,94,91,91,96,100,103,102,99,92,83,77,76,86,100,109,112,109,101,94,89,88,88,90,95,99,102,103,104,102,101,106,111,117,123,129,132,132,131,128,126,124,124,124,124,124,122,118,111,103,96,90,87,85,83,82,79,73,65,56,45,35,30,34,43,50,46,40,32,24,18,16,22,28,34,34,29,23,15,6,6,13,12,8,6,3,4,2,0,1,1,1,4,12,26,39,45,42,39,37,36,36,41,47,50,52,53,54,57,63,78,98,110,114,117,117,114,108,107,111,117,123,128,132,132,127,121,111,101,97,97,94,91,92,104,112,116,118,120,123,130,137,143,145,145,142,136,126,119,112,103,88,73,69,74,81,85,91,99,107,111,115,115,113,109,102,93,88,88,91,97,106,113,123,128,128,125,120,117,120,121,117,106,92,86,87,90,90,91,91,95,101,108,113,116,117,113,105,93,83,85,91,97,99,98,95,95,100,104,109,117,123,127,128,123,116,112,113,119,126,132,139,145,150,153,155,154,152,148,142,136,132,127,122,116,110,105,101,93,82,77,74,77,89,100,104,103,99,94,88,85,83,79,75,69,63,60,60,60,61,58,56,52,52,54,57,61,64,67,69,70,66,61,58,63,70,76,79,80,82,83,83,83,82,82,81,80,79,77,75,77,84,91,98,102,103,104,105,104,102,103,104,105,108,115,127,137,143,142,133,120,108,106,110,113,117,119,121,126,132,137,137,135,131,122,111,103,98,94,86,81,77,75,68,67,74,84,94,97,95,91,82,75,73,73,73,76,82,88,94,98,104,110,110,110,109,106,97,90,85,81,77,76,74,73,72,73,78,85,87,84,79,71,65,65,69,68,65,61,60,59,59,59,57,61,69,74,79,84,88,90,89,87,86,86,87,88,87,85,84,83,81,79,76,72,70,66,61,55,51,47,43,38,36,34,32,28,28,31,35,32,30,28,25,24,23,21,20,19,19,18,19,21,20,19,17,16,17,18,18,17,21,24,24,26,26,24,22,20,17,15
10,11,12,11,12,12,12,12,11,10,11,14,16,15,14,16,16,16,17,17,19,19,18,18,20,22,22,23,23,23,22,22,23,24,24,26,27,25,23,21,20,20,19,20,21,27,34,37,36,37,37,39,41,43,44,44,45,43,44,46,46,45,45,45,44,44,44,44,46,46,44,42,42,42,40,35,33,29,28,27,26,26,25,23,23,24,22,23,22,20,19,18,16,16,16,19,20,22,24,26,31,33,32,29,25,21,20,19,18,17,18,19,20,25,27,29,30,32,32,32,33,33,34,32,31,34,35,34,35,35,35,35,35,35,35,36,36,34,33,34,35,35,36,35,33,34,33,33,33,35,35,34,34,34,34,34,34,34,33,33,32,31,31,31,31,30,29,27,26,27,27,27,28,29,31,32,32,32,33,34,35,35,36,37,36,36,37,37,38,38,38,37,39,39,40,41,42,42,43,44,45,48,49,49,48,49,49,46,44,41,40,40,39,38,38,39,37,38,38,38,37,38,39,39,38,39,38,38,37,37,37,36,37,36,36,37,38,39,39,39,38,40,40,39,39,40,39,40,40,40,41,41,41,40,39,40,39,39,40,39,40,37,31,29,28,29,29,28,30,32,33,36,38,40,40,39,39,38,37,37,36,38,39,40,40,41,40,40,41,42,42,41,41,40,39,39,40,39,38,40,45,50,46,43,44,44,44,44,43,42,43,43,43,43,45,45,45,45,44,45,43,42,45,47,47,47,45,44,45,45,44,46,47,47,47,46,47,48,48,47,43,44,44,43,42,43,44,45,45,44,44,43,43,42,42,44,44,44,42,42,44,46,45,43,43,44,44,43,42,38,35,35,37,40,43,45,45,47,46,45,49,54,51,48,48,48,49,50,49,50,50,48,45,44,49,54,55,56,57,57,57,57,57,58,58,58,58,58,57,57,56,55,55,55,53,48,45,40,39,40,41,39,39,38,37,37,37,39,45,52,59,64,66,68,70,73,74,76,79,82,83,85,86,84,83,84,84,84,82,81,77,71,64,61,56,48,40,35,34,38,48,56,61,64,71,77,81,88,90,94,96,95,95,97,99,99,97,95,94,94,93,92,92,92,92,94,99,102,99,94,95,98,97,96,93,91,89,90,91,89,83,69,53,49,54,66,76,80,83,85,86,88,89,94,95,90,86,85,83,77,69,49,29,25,39,52,59,65,68,65,63,59,53,43,43,55,71,81,88,88,86,82,71,59,50,43,36,33,31,28,21,15,11,7,5,2,1,0,0,-1,-1,-2,-2,-1,-1,-1,-1,0,0,2,9,10,4,1,5,13,18,24,28,36,43,51,57,67,76,81,85,87,87,86,84,81,77,73,69,66,64,62,60,57,54,52,55,68,80,91,99,104,106,108,108,108,109,110,108,105,103,103,104,107,109,112,113,115,118,120,120,118,115,109,103,98,90,80,66,60,57,54,55,58,62,65,72,78,80,82,83,82,79,76,69,58,54,59,67,73,78,82,85,87,86,90,99,105,110,111,110,106,101,95,93,96,105,114,119,116,108,95,84,78,74,70,67,66,68,71,75,78,81,85,93,102,109,111,105,95,85,81,77,72,70,70,70,69,67,64,64,64,62,60,57,55,54,57,63,70,74,79,84,87,89,92,95,95,96,98,98,98,98,98,98,99,100,103,107,113,122,131,137,139,138,132,125,120,114,109,107,107,105,102,99,97,97,100,103,106,110,106,100,91,82,77,80,90,102,111,113,108,98,92,92,94,96,99,103,107,111,113,112,111,110,113,118,123,127,130,133,130,129,127,124,121,119,118,120,120,118,117,114,109,106,104,102,99,95,92,86,80,71,62,55,47,36,27,27,32,38,38,30,22,20,27,37,40,39,34,29,23,14,5,2,6,9,8,6,4,3,3,3,2,1,1,2,8,20,34,41,43,46,48,49,51,56,62,67,73,74,74,75,79,92,107,114,119,122,121,117,113,114,118,123,128,132,136,135,131,125,116,107,103,103,101,96,94,101,111,118,124,129,132,136,140,143,145,144,142,135,129,122,113,103,91,77,70,72,78,84,91,98,104,111,117,118,116,112,104,96,94,97,98,103,109,116,124,128,131,131,128,124,123,122,115,104,92,90,94,98,100,99,100,104,109,115,119,122,121,115,104,90,87,92,97,102,105,103,99,100,106,109,115,121,127,132,133,128,122,120,121,125,130,135,140,146,150,152,152,150,147,141,132,126,123,119,114,113,112,108,102,97,90,81,73,74,85,101,110,113,110,106,103,101,102,97,92,87,81,73,66,62,60,60,58,55,55,58,61,64,65,69,73,73,68,63,62,67,73,78,83,85,87,89,90,91,91,90,88,87,86,83,80,79,79,81,88,95,101,107,109,110,108,108,110,111,113,116,123,133,142,145,139,131,128,127,126,125,126,127,128,129,130,132,127,122,116,107,100,95,86,83,80,78,75,74,71,71,78,90,97,99,96,90,82,76,71,71,73,80,90,97,100,101,106,110,112,112,101,89,84,82,82,83,83,82,81,82,84,86,92,96,96,91,82,71,67,73,81,84,83,82,79,75,72,66,63,72,83,88,92,97,100,102,102,100,99,98,97,95,93,92,91,91,89,85,81,76,73,69,61,52,47,45,43,38,35,35,34,34,38,42,44,43,41,38,35,33,31,28,25,24,22,21,20,23,26,27,26,25,21,19,17,13,14,16,18,19,22,24,25,22,20,18
12,13,12,12,12,13,14,14,13,13,13,12,16,16,15,16,18,17,18,19,19,21,21,21,21,23,25,27,26,24,23,24,24,26,28,30,31,29,27,26,26,24,22,21,21,20,30,39,38,37,39,41,41,43,44,45,45,44,47,48,47,45,46,47,46,47,47,46,47,48,47,46,45,43,37,32,31,31,32,33,33,30,27,28,28,29,28,26,25,23,21,19,18,16,17,19,20,21,22,26,30,32,34,32,28,25,25,25,22,20,18,18,19,21,24,28,28,32,33,35,34,33,33,35,36,39,39,39,38,37,35,36,36,36,36,36,37,35,34,34,35,35,35,36,35,36,35,35,35,36,36,35,36,36,36,35,34,34,34,33,33,32,32,32,32,33,30,28,27,28,27,27,28,32,33,34,34,35,35,36,37,38,39,41,41,39,39,41,44,44,42,42,43,42,41,44,47,46,46,46,45,45,48,49,49,46,45,44,43,43,41,42,43,42,42,42,41,41,42,41,42,43,42,41,41,42,41,41,39,38,38,38,38,38,39,39,39,38,38,38,39,40,40,40,40,40,40,39,39,40,39,39,40,39,39,40,39,39,40,40,37,33,29,28,28,29,29,30,32,35,36,37,37,38,39,41,41,40,40,38,38,40,40,41,43,45,44,42,42,40,41,41,41,40,39,40,42,42,42,42,45,52,52,48,46,47,48,47,46,44,45,45,46,48,50,49,45,44,44,44,45,45,48,46,47,49,47,46,45,45,45,44,45,46,46,46,46,46,45,44,42,43,43,43,42,42,43,45,45,45,44,43,42,44,44,45,45,45,44,42,42,44,44,44,43,43,43,45,47,44,40,37,37,40,43,43,44,45,46,50,56,60,60,56,54,55,56,57,57,56,55,52,47,44,47,55,58,60,62,64,64,65,64,65,65,65,65,65,62,60,57,52,50,49,45,41,41,40,40,40,40,42,43,43,42,40,39,39,39,40,42,47,52,57,64,69,72,74,77,82,85,87,88,89,90,90,90,88,84,81,77,71,69,67,64,55,44,38,34,32,34,43,53,62,71,76,81,89,94,98,100,100,102,103,103,105,105,102,99,99,98,95,95,97,98,100,103,103,103,101,103,104,105,103,99,97,94,94,93,89,82,68,56,54,56,61,74,83,87,91,93,98,100,100,95,92,92,89,83,78,65,44,35,37,37,47,61,71,74,75,73,69,62,51,49,61,75,85,90,91,89,83,67,54,48,41,35,31,28,25,21,15,12,10,7,4,2,1,0,-1,-1,-1,-1,-1,-1,-1,0,0,0,5,12,14,9,5,4,9,13,18,22,30,37,43,51,61,71,79,85,88,89,90,91,90,86,83,80,76,73,69,65,62,58,56,57,57,59,64,73,85,100,110,113,114,114,111,112,111,110,109,109,110,112,114,116,119,119,118,115,107,94,79,71,70,69,62,57,55,55,57,57,58,60,65,71,78,82,85,87,86,83,81,73,62,56,58,65,72,78,84,88,90,91,92,100,107,113,118,119,117,111,105,101,99,105,114,119,114,104,90,82,78,74,71,67,68,70,76,81,82,85,92,100,105,108,106,99,91,85,81,77,74,73,73,74,73,72,71,70,68,66,64,61,57,54,57,62,70,75,81,87,91,95,99,102,102,103,106,105,107,107,107,107,108,109,109,111,115,122,130,136,140,138,134,129,123,118,115,112,110,107,103,101,102,106,108,112,113,112,105,93,85,81,81,87,96,106,115,117,111,102,96,95,100,105,109,112,117,120,120,121,119,119,121,124,127,130,131,129,126,120,115,111,106,103,102,106,108,108,111,113,113,112,111,108,106,104,100,95,90,84,78,72,64,52,40,28,24,24,26,23,22,31,42,43,40,35,29,23,17,11,4,2,3,7,8,4,2,1,2,3,2,0,0,2,5,8,16,23,25,27,31,32,35,39,48,60,75,82,88,94,98,106,115,120,123,126,126,123,122,123,125,129,134,138,141,139,134,128,120,114,113,110,105,99,97,101,108,116,125,132,136,139,141,142,139,132,123,116,109,105,101,96,89,79,74,73,75,81,89,97,101,109,116,120,119,116,109,101,99,102,104,109,113,120,127,132,134,134,133,131,126,122,115,104,92,90,94,100,104,106,108,113,117,120,125,126,124,116,103,90,91,97,102,107,110,109,107,105,109,114,120,126,130,134,135,132,128,127,129,132,135,139,142,144,146,148,147,145,142,137,132,127,122,116,109,105,102,100,99,96,94,86,76,73,84,100,112,118,120,118,114,114,113,110,106,100,91,81,73,65,59,58,57,58,61,64,65,65,65,66,69,70,69,68,67,68,71,74,80,85,89,92,95,97,97,97,96,94,92,88,87,87,85,84,84,86,90,96,103,110,113,114,115,117,119,119,121,130,141,147,148,148,142,139,135,133,129,125,119,113,109,107,102,95,90,87,86,87,84,80,78,78,78,78,78,80,85,97,104,102,95,84,77,72,70,72,77,85,95,105,108,107,109,111,109,101,91,86,88,91,94,96,94,91,91,93,96,99,104,106,105,99,83,71,73,82,91,96,98,96,89,82,74,70,75,87,95,100,104,106,107,106,105,101,95,93,90,84,81,77,78,81,81,78,73,67,65,61,53,45,38,37,37,36,37,38,39,44,52,56,55,54,53,50,46,42,40,38,35,33,31,28,25,29,35,35,35,33,29,27,24,19,17,15,13,12,11,10,9,11,14,11
13,12,12,14,14,14,14,15,17,17,16,17,19,19,22,21,19,21,21,21,20,21,20,22,24,25,27,29,28,26,25,26,28,28,30,32,34,33,32,30,28,25,23,24,23,22,25,36,38,39,41,41,42,46,47,46,45,49,53,53,52,48,45,46,47,49,48,47,46,47,47,45,45,41,36,33,33,36,39,40,39,33,29,31,33,33,32,31,29,25,22,21,21,17,16,17,19,22,24,25,26,29,31,31,32,30,30,27,23,20,19,18,18,20,20,21,24,28,31,34,34,34,34,34,37,38,41,39,38,39,39,38,38,38,38,37,37,37,36,36,37,37,39,38,36,36,35,36,37,37,37,37,38,38,37,37,36,36,35,34,34,33,34,36,33,32,31,31,30,30,31,31,31,32,34,36,36,37,38,39,40,41,42,45,45,42,42,44,45,43,44,46,48,46,45,47,49,49,50,50,49,49,48,47,48,46,46,45,44,45,45,47,47,46,46,46,45,46,46,45,46,46,46,46,46,46,46,46,43,42,42,41,41,41,41,41,41,40,39,39,40,41,40,40,40,40,40,40,38,38,37,39,40,39,39,41,41,40,39,37,34,29,28,29,27,28,30,32,34,38,40,41,38,38,39,43,44,43,43,40,40,41,43,44,45,47,48,46,44,43,45,45,45,44,44,45,45,44,44,44,47,54,55,52,49,47,48,48,46,46,48,49,49,49,49,48,47,46,45,45,46,47,50,51,51,50,48,49,48,47,47,47,48,48,48,48,47,47,46,46,46,46,46,46,44,43,44,47,48,48,48,48,47,47,48,49,48,47,46,46,46,46,44,43,43,45,47,49,52,51,51,48,47,46,45,44,44,45,46,48,56,62,65,63,62,64,66,66,65,61,58,53,49,46,47,55,61,65,69,69,71,74,75,75,74,74,75,74,70,61,51,45,48,50,48,48,48,47,45,43,43,45,47,48,47,46,45,44,43,43,42,41,41,43,47,54,57,61,69,79,84,89,92,95,97,96,94,90,84,80,76,71,70,69,65,61,52,43,39,33,31,35,41,50,61,70,77,82,87,92,94,96,98,99,100,101,105,105,104,103,102,102,102,104,104,105,106,107,108,107,108,109,108,108,107,105,101,95,91,82,72,64,63,69,68,63,67,80,90,97,100,103,105,103,99,96,95,90,86,79,59,39,43,50,49,47,54,71,81,86,85,82,74,62,55,64,80,89,94,95,91,81,63,47,41,38,34,28,25,21,17,13,11,8,4,2,0,0,-1,-2,-1,-1,-1,0,-1,-2,0,2,5,14,20,18,16,11,7,4,6,10,14,18,23,31,39,48,57,69,78,85,89,91,96,98,96,94,91,86,82,77,71,66,64,63,64,65,65,64,62,65,81,99,110,116,116,116,116,116,117,116,115,115,117,117,119,120,119,113,101,83,72,64,62,60,59,58,57,58,58,60,61,62,62,64,69,76,81,86,90,91,89,83,78,72,63,58,60,67,76,82,89,94,96,98,98,104,113,120,123,124,121,117,112,109,111,118,120,115,105,93,83,79,76,71,69,69,73,77,82,87,94,100,104,108,108,104,97,90,86,83,80,77,77,77,78,76,76,74,73,71,69,66,62,58,56,59,65,68,74,81,90,96,99,103,107,109,112,114,115,118,119,120,119,120,119,119,119,122,127,133,139,141,139,136,130,124,119,115,111,109,106,105,107,110,114,117,119,115,107,96,85,81,84,88,95,103,112,120,121,115,108,103,99,100,105,113,120,126,127,129,129,127,127,128,131,131,131,130,124,115,108,98,86,76,70,71,75,80,85,92,101,105,106,108,111,108,106,104,102,98,94,90,85,78,71,61,52,46,42,41,43,47,50,48,43,35,28,22,17,13,9,6,3,3,5,6,5,3,0,1,2,1,0,1,6,9,9,10,12,13,15,17,21,23,26,30,43,59,75,89,99,107,115,121,126,130,132,132,130,128,130,134,137,142,146,145,143,138,131,126,123,119,111,103,100,104,108,112,118,126,133,140,141,139,131,120,108,99,92,88,86,86,84,82,79,77,76,75,77,81,91,101,108,115,119,122,122,117,111,105,105,109,114,119,124,130,135,138,138,137,135,129,120,110,101,97,97,96,100,107,113,116,120,124,126,131,131,126,120,106,95,94,102,109,113,117,117,115,111,112,117,124,129,134,137,139,138,136,135,137,138,140,142,142,140,138,136,133,132,132,133,132,129,125,119,113,107,102,96,93,91,91,84,77,77,87,103,114,120,123,123,121,117,111,106,101,95,87,76,64,58,58,60,62,64,68,72,74,72,72,74,77,77,75,69,64,63,63,67,74,84,94,99,102,105,106,105,102,100,97,97,96,95,92,92,91,91,90,89,92,100,108,114,120,123,123,124,129,137,148,156,160,158,153,143,135,128,118,108,101,98,96,96,95,92,90,90,89,86,82,80,80,82,83,83,85,88,96,104,107,104,94,85,77,72,71,75,81,90,102,108,113,113,114,111,103,93,90,95,100,102,105,107,104,102,104,106,109,111,114,115,111,103,83,73,77,87,98,106,107,101,91,79,76,84,93,99,105,109,111,111,110,106,96,89,81,75,69,60,56,52,51,54,60,61,56,52,50,50,46,39,38,41,43,45,48,52,56,61,67,71,70,68,64,61,56,52,49,46,42,38,34,31,30,37,43,44,42,41,38,36,33,30,27,25,21,20,18,16,14,13,12,11
15,14,14,15,14,14,16,16,16,17,17,17,19,19,20,22,22,20,20,19,20,23,24,25,24,25,26,29,30,30,30,29,28,29,33,35,36,36,35,34,31,29,27,26,25,23,22,28,37,40,41,41,43,46,48,49,48,51,55,56,52,46,43,43,44,46,47,47,47,47,47,45,44,42,38,37,40,37,36,39,40,36,33,33,35,36,34,32,29,26,23,22,21,18,18,17,17,21,24,25,28,31,31,32,33,33,31,30,28,23,21,20,20,19,20,20,22,25,29,33,31,32,34,35,37,37,37,38,38,39,41,39,37,36,37,38,38,37,36,36,35,37,37,35,35,35,36,36,37,37,37,38,40,40,39,39,38,37,37,36,36,36,35,34,34,34,33,35,36,34,34,35,35,36,37,39,41,41,42,42,42,44,44,45,45,44,45,46,47,47,50,50,53,55,55,51,49,50,50,51,52,52,51,50,50,48,47,46,48,50,50,49,51,50,50,51,51,50,50,51,51,51,50,50,50,50,49,49,48,47,48,47,45,44,44,43,43,41,40,41,42,41,41,41,41,41,42,42,41,41,40,39,40,39,40,41,41,40,36,33,31,30,29,29,29,28,30,34,38,42,43,44,43,41,40,42,44,44,44,46,46,45,46,47,47,49,50,50,48,46,47,48,48,49,49,50,51,50,49,50,50,54,56,53,51,50,49,48,50,52,53,53,53,51,49,49,50,50,49,50,51,51,50,50,50,54,56,54,52,51,51,51,51,50,50,50,50,50,50,50,50,49,48,46,45,44,47,51,52,52,52,53,54,53,54,53,51,50,48,47,47,49,51,52,54,55,56,58,59,59,59,58,57,56,55,52,50,46,45,45,49,55,62,66,69,70,70,68,67,66,65,61,54,49,48,53,62,69,75,78,82,86,86,84,82,81,81,79,71,57,47,45,47,51,52,52,51,52,50,47,47,48,51,52,51,50,50,51,50,48,48,46,46,44,43,45,47,51,55,62,74,86,92,96,99,99,97,94,88,84,78,75,73,74,72,68,58,47,41,35,32,34,35,38,43,49,55,62,65,66,65,71,76,80,86,91,95,99,104,107,107,107,107,109,111,112,111,109,110,110,113,115,114,114,113,111,106,96,84,76,76,78,81,80,78,71,66,72,85,95,102,106,105,104,103,102,100,96,87,73,49,41,54,60,60,58,57,70,87,96,97,92,84,74,65,71,87,95,98,95,89,76,59,48,41,33,24,17,16,15,11,5,2,1,0,0,1,1,-1,-2,-2,-1,0,0,-2,-2,-1,2,8,15,20,23,22,17,13,11,7,5,6,8,12,17,24,30,38,50,63,75,83,88,96,101,102,103,101,98,93,87,80,75,74,73,73,73,73,71,68,64,70,88,105,114,117,119,119,120,120,121,121,119,120,121,119,116,110,99,82,69,61,59,60,60,61,62,62,63,64,65,67,67,67,67,69,73,78,86,91,93,93,89,85,77,72,65,60,63,72,83,92,97,101,104,106,107,110,118,126,130,131,129,126,123,125,128,125,116,104,90,82,76,72,69,69,70,74,77,83,90,98,105,111,112,108,101,94,89,87,87,84,82,81,82,81,80,78,78,76,73,69,64,61,58,58,62,66,69,73,78,87,94,99,103,105,108,112,117,121,124,126,130,130,129,130,131,130,130,134,139,142,144,143,138,133,127,122,117,113,111,111,112,117,119,123,124,122,114,101,89,85,87,93,99,104,111,119,126,127,123,117,111,107,106,104,106,114,125,131,135,136,135,135,135,135,133,129,123,116,109,101,92,82,72,62,56,52,55,60,67,76,80,90,97,100,98,99,100,100,100,100,98,95,92,87,83,79,76,73,70,68,64,56,48,41,32,23,18,16,13,11,8,5,3,1,2,3,2,1,0,0,1,2,5,10,16,22,26,28,30,31,34,39,42,45,41,38,47,65,84,97,107,117,124,130,135,137,138,137,135,137,141,144,147,151,151,148,142,137,132,127,117,107,104,108,113,117,121,126,132,138,142,143,137,121,102,94,93,91,92,92,91,88,86,85,85,85,82,78,78,85,96,106,112,119,124,127,125,121,115,113,112,115,123,128,133,137,141,142,141,137,129,116,106,104,106,106,102,101,103,111,119,124,129,132,135,133,129,122,110,98,96,102,110,116,120,122,122,119,117,121,126,132,137,140,143,143,142,142,143,144,143,142,139,134,128,122,117,114,115,121,124,124,120,115,108,105,100,96,90,85,81,78,76,79,89,102,114,121,125,125,121,116,110,103,96,87,78,68,60,57,59,64,68,71,75,79,83,84,84,86,87,86,82,77,72,67,64,62,64,73,85,93,102,108,111,111,110,107,105,103,101,99,97,98,101,100,99,99,101,106,110,113,118,121,126,132,138,145,151,159,164,161,153,140,127,113,107,104,102,103,102,101,100,100,98,96,94,90,82,82,86,90,94,94,95,100,106,110,110,106,95,86,80,75,74,78,86,96,107,113,117,117,115,109,101,93,95,103,110,114,116,118,117,116,115,117,121,123,123,119,114,102,82,77,82,93,105,113,113,105,91,84,89,97,103,109,113,114,113,112,110,102,88,77,67,60,56,52,50,50,49,47,45,43,42,41,39,38,41,46,48,50,51,56,62,66,69,74,80,82,82,80,73,67,60,57,53,49,44,38,33,30,37,47,52,52,51,48,46,44,41,38,37,36,34,30,30,28,25,25,24,24
16,16,14,15,15,16,17,19,20,21,20,19,20,20,20,20,21,21,21,21,23,26,26,28,27,26,27,30,34,35,35,33,30,31,34,37,38,39,39,37,35,32,28,27,25,23,21,23,32,39,40,40,42,44,46,48,49,53,56,55,48,44,44,43,44,43,44,46,47,47,46,46,46,44,41,43,42,39,39,41,40,38,35,35,34,35,36,35,33,29,25,23,22,20,18,19,18,19,23,24,26,28,31,33,32,32,33,34,32,30,26,23,22,21,19,20,22,23,22,26,26,26,28,32,35,36,37,41,42,40,40,39,38,37,39,40,39,38,38,38,37,38,37,36,35,36,37,37,37,39,40,41,42,44,46,43,40,39,39,39,39,38,37,37,36,37,37,38,39,39,38,39,40,42,42,44,45,46,46,43,44,47,47,48,48,48,48,50,49,49,51,52,56,57,55,52,51,52,51,51,52,53,53,51,49,50,52,52,55,58,58,56,55,54,55,55,53,54,54,56,56,56,56,56,55,54,55,53,53,55,57,56,56,54,51,48,46,46,45,43,43,43,42,41,41,42,43,42,42,43,42,42,42,42,41,40,39,37,35,31,30,29,29,29,30,32,35,37,40,44,46,48,47,45,43,43,46,48,47,48,48,48,48,51,56,55,56,55,53,49,49,52,52,53,54,54,55,56,56,56,55,57,59,58,55,53,53,54,55,54,53,55,58,57,55,55,54,55,55,56,55,55,55,54,49,55,63,61,58,57,56,56,55,54,54,54,54,54,54,55,55,54,53,51,48,47,52,55,57,57,59,60,60,60,58,56,54,50,47,48,50,51,56,60,62,62,63,65,65,66,67,67,64,62,59,54,50,46,45,43,45,53,61,68,73,74,76,74,72,70,70,67,59,52,50,54,60,71,81,87,89,91,94,92,91,87,81,75,64,50,46,45,46,52,55,55,56,57,54,51,49,51,55,56,54,55,55,56,56,55,55,55,52,50,46,44,45,50,52,57,63,72,85,93,98,101,100,96,89,84,78,74,71,70,67,60,53,47,39,34,36,43,41,40,44,46,44,44,45,45,43,44,47,54,59,63,69,80,91,98,104,109,112,116,119,119,116,114,113,114,116,117,118,116,114,112,107,96,83,79,88,93,93,92,87,81,74,71,80,94,104,108,107,106,106,105,105,99,84,66,46,48,60,67,71,69,65,71,88,99,103,99,94,85,77,81,91,99,99,94,83,69,56,45,39,31,22,14,7,1,0,-1,-1,-1,-2,-1,0,1,1,0,-1,0,0,0,-1,0,2,6,11,16,21,24,25,24,21,18,15,13,10,6,7,11,16,20,25,31,39,51,66,78,89,99,102,106,107,105,102,97,91,89,88,87,85,82,80,77,72,66,67,81,100,113,119,123,124,125,125,125,125,125,123,119,112,99,87,75,66,62,60,62,65,65,66,66,69,69,70,71,72,71,71,73,74,76,80,85,92,98,99,96,90,84,77,68,61,62,69,80,92,100,106,112,115,117,115,116,125,133,137,139,141,141,141,138,129,120,105,89,80,74,71,71,71,74,77,79,83,92,104,112,115,115,109,102,95,92,90,90,86,85,85,84,83,83,82,80,76,73,68,63,60,59,62,64,68,70,73,78,82,86,90,93,94,99,101,106,113,121,128,134,136,136,137,138,139,139,139,142,143,145,144,141,137,132,127,122,118,116,116,120,125,128,130,129,125,117,104,91,87,90,96,104,110,115,124,131,135,133,127,122,118,114,112,110,109,115,126,135,139,140,138,137,135,130,123,113,104,96,90,87,83,76,69,61,52,46,42,43,47,54,62,69,75,77,78,80,87,92,95,98,97,96,95,93,93,90,87,83,77,66,55,46,36,24,18,14,12,10,9,8,6,3,2,2,2,2,2,0,0,1,3,7,12,18,25,33,39,45,51,56,62,68,70,64,54,50,56,72,93,106,117,125,132,137,141,144,144,144,145,147,152,154,155,155,150,146,141,134,122,110,110,113,118,124,127,131,134,139,143,144,142,133,117,101,98,101,104,105,106,106,104,102,101,99,95,90,84,79,80,89,98,108,117,126,130,130,129,126,122,119,118,120,126,132,138,144,144,142,139,131,119,111,112,115,114,110,107,105,110,118,124,130,135,137,135,129,118,106,101,102,103,109,117,125,128,129,127,126,129,134,136,142,145,148,148,148,147,145,143,141,139,136,132,126,121,115,108,104,108,113,112,107,99,91,87,84,83,82,80,78,79,81,86,94,103,115,122,126,126,122,118,111,106,99,89,79,69,60,58,60,66,72,76,81,86,90,92,94,95,95,93,89,84,77,73,67,64,65,70,79,89,98,106,113,115,116,115,114,112,109,106,104,106,109,110,107,104,103,105,107,111,115,121,128,136,143,151,158,161,162,159,149,134,117,111,111,112,112,112,111,109,108,107,105,101,97,92,84,84,91,98,101,105,110,116,119,118,114,108,98,89,83,78,74,74,83,96,109,115,121,122,120,113,105,98,95,101,111,119,122,123,125,126,127,128,130,130,127,121,110,91,82,86,93,103,112,118,117,108,97,94,101,106,112,116,115,111,108,102,98,90,76,66,60,55,54,54,56,57,57,55,49,43,41,44,46,45,49,55,59,61,64,69,73,77,82,86,90,91,89,84,76,68,60,54,49,45,40,36,32,36,47,55,60,61,61,58,57,54,50,49,46,44,44,41,41,40,39,36,36,38
15,15,16,17,17,18,20,22,23,22,21,21,22,23,22,23,23,23,24,23,23,25,25,23,23,27,30,33,35,36,36,36,33,31,34,37,39,40,40,39,37,34,32,30,27,22,20,22,27,33,36,40,41,44,44,42,39,42,45,46,45,47,46,45,45,45,46,46,46,46,46,45,44,42,43,45,46,47,44,41,42,41,39,39,38,37,38,37,35,31,27,24,21,21,24,26,26,22,20,22,22,22,24,27,29,31,33,34,33,30,29,28,27,24,22,21,21,21,21,22,21,20,21,24,26,29,36,42,44,42,40,39,38,37,39,39,39,38,38,38,38,38,38,37,36,37,37,38,39,39,42,44,44,45,48,44,42,42,42,42,42,42,43,43,42,41,40,41,44,45,43,44,46,48,48,49,50,50,50,46,47,51,52,54,53,51,50,50,50,53,57,59,58,56,54,54,55,57,57,56,55,54,53,52,49,50,53,55,57,58,60,62,61,59,60,62,59,58,59,61,62,62,62,63,62,60,60,60,60,63,66,65,64,62,59,55,53,52,51,48,47,46,45,44,42,42,43,43,41,41,41,40,40,40,41,41,38,35,33,31,30,29,28,30,32,36,40,43,45,47,48,49,49,46,44,47,50,52,52,52,52,52,52,54,55,58,60,58,55,51,50,54,56,59,61,62,61,60,61,62,61,62,64,64,58,56,53,53,54,53,55,57,60,63,64,61,60,61,61,60,58,56,54,50,48,58,66,67,64,62,62,61,58,56,55,54,54,56,58,58,58,57,57,57,50,49,57,62,64,63,65,66,65,64,63,60,55,48,48,51,55,58,59,61,64,68,71,71,68,68,72,73,69,65,62,56,51,48,47,44,47,55,62,68,74,77,80,80,79,76,73,73,64,56,52,52,58,68,78,88,91,97,100,100,95,87,78,67,56,50,49,47,50,55,57,59,60,61,58,55,52,54,57,59,59,58,59,61,61,61,61,60,57,53,51,48,45,46,51,55,59,63,72,85,93,97,96,92,86,76,68,62,57,51,45,41,39,37,37,39,47,52,51,45,47,51,48,43,41,40,39,38,40,41,45,47,49,55,67,81,91,101,107,113,118,121,121,118,114,114,117,118,117,115,113,110,104,94,84,83,93,102,105,104,99,89,80,72,79,94,104,110,111,110,110,111,109,98,83,64,48,52,63,72,78,81,77,75,85,96,102,104,101,95,89,91,96,99,98,88,76,58,43,36,33,28,22,11,1,-1,-1,-1,-2,-2,-2,-1,0,1,0,0,0,0,2,2,3,7,11,13,16,20,24,27,28,29,26,24,21,19,16,11,9,10,10,14,18,21,24,32,42,53,71,86,94,102,107,110,109,106,103,102,100,97,93,89,86,79,72,69,69,79,96,110,117,123,128,129,129,130,129,128,123,114,97,80,69,64,63,64,64,65,69,70,71,72,74,77,78,79,79,78,77,79,82,84,87,91,96,100,101,99,94,86,75,64,63,67,72,81,93,102,109,116,122,125,127,125,126,136,143,148,151,151,149,143,130,113,95,84,76,72,72,74,76,78,80,82,84,92,104,116,119,120,115,107,101,99,97,95,93,91,89,86,82,80,78,75,73,70,64,60,60,61,63,65,68,72,75,78,80,82,83,85,89,93,96,100,106,116,126,132,138,141,142,142,142,141,141,142,143,146,146,144,142,139,136,132,127,124,123,125,129,133,134,135,131,122,111,99,92,88,90,97,103,112,121,129,135,138,136,132,127,123,121,118,116,116,119,128,137,142,143,138,131,122,111,98,82,68,66,65,69,68,66,59,53,47,41,35,33,33,36,42,47,48,47,49,55,64,77,84,85,85,84,83,86,84,81,77,70,61,53,41,29,21,17,15,12,7,5,3,2,0,0,1,1,1,0,1,3,5,6,8,12,17,22,28,35,44,51,60,68,76,81,82,78,73,70,74,88,104,116,124,133,138,143,147,149,151,153,156,158,159,158,156,152,146,136,123,115,114,118,122,126,133,138,140,144,147,148,148,141,129,115,105,104,113,119,122,122,121,118,113,111,108,104,98,91,84,80,81,86,94,109,121,128,133,136,135,132,129,127,126,126,131,140,145,147,145,141,132,122,116,119,123,122,118,114,110,110,116,123,130,136,138,136,129,115,106,109,111,110,112,118,126,131,134,135,134,136,141,143,147,150,152,151,151,146,140,133,128,126,128,128,126,123,118,110,103,98,100,100,94,89,84,86,89,87,86,84,86,88,92,95,101,108,117,123,126,125,120,114,107,101,94,85,76,67,60,61,62,64,71,78,85,91,96,100,101,102,102,100,96,90,82,73,66,66,69,72,77,84,94,104,112,118,121,122,122,121,117,113,111,113,116,117,115,112,110,108,106,106,110,117,125,134,144,154,159,160,158,152,138,123,122,122,120,121,122,123,122,120,119,117,112,106,100,95,88,89,96,104,112,120,122,123,124,121,115,108,99,92,87,81,77,75,79,88,104,115,122,125,125,118,111,103,98,102,110,114,116,120,125,130,132,134,136,134,127,112,96,87,91,99,106,114,121,124,120,112,105,108,112,115,116,114,109,103,94,86,83,80,71,63,58,57,60,62,64,63,61,56,47,45,51,57,61,63,66,69,71,73,75,79,83,88,93,94,94,91,88,80,72,65,58,51,45,41,38,36,39,48,59,66,69,71,72,69,68,65,62,58,52,50,52,51,49,47,47,45,45,45
18,18,18,19,20,21,22,23,24,25,25,25,24,24,26,26,26,25,24,21,20,19,20,22,25,27,31,36,38,41,40,38,36,34,35,37,39,41,40,42,42,38,35,31,27,23,20,20,21,28,33,38,42,41,40,38,36,33,36,43,45,48,48,48,47,44,44,43,44,44,42,41,40,39,43,46,46,46,46,45,44,41,40,40,40,40,39,39,36,32,28,27,24,25,27,30,28,27,25,22,20,19,19,21,25,27,32,35,35,32,31,32,31,28,26,25,25,24,22,22,22,21,20,22,22,22,24,31,36,38,39,38,36,37,38,39,40,38,38,37,39,39,39,39,38,39,39,40,40,42,44,45,46,46,46,45,46,47,47,46,46,47,46,48,50,50,49,50,52,52,51,53,54,54,54,54,54,54,54,52,51,55,58,57,56,55,54,53,51,52,55,58,62,61,61,60,58,59,60,60,58,56,54,50,48,48,51,56,60,63,65,65,66,67,67,67,65,65,65,66,68,68,68,67,68,70,71,68,66,70,73,72,70,68,63,59,58,58,56,52,51,50,47,45,44,44,44,43,42,41,41,41,41,40,42,40,36,33,32,29,30,30,30,33,37,43,45,48,50,51,51,51,51,48,45,48,52,54,55,56,56,56,55,55,55,55,55,57,55,50,52,58,61,63,64,66,64,65,67,68,67,64,66,64,60,52,48,51,54,54,58,63,66,65,65,63,62,62,63,63,61,56,51,49,52,60,69,71,68,66,65,63,62,60,58,56,56,59,60,61,61,59,59,60,51,51,59,67,71,71,71,71,70,68,65,61,55,51,51,56,61,64,64,66,69,72,74,77,77,75,76,78,75,70,68,60,53,51,51,49,49,51,56,64,73,81,84,86,85,81,79,80,74,64,56,53,57,67,76,84,91,97,99,93,81,71,63,52,46,47,47,49,54,59,62,63,64,65,62,58,55,58,63,65,64,64,65,68,68,67,67,66,62,59,55,53,49,47,50,54,58,62,68,75,85,91,87,83,75,68,58,54,56,57,52,50,49,45,41,42,53,58,59,54,50,51,50,46,45,43,42,42,45,44,42,42,43,46,51,59,68,82,95,105,114,118,119,118,116,115,118,120,118,115,112,110,106,102,96,93,101,109,113,112,107,100,91,80,79,90,102,111,114,114,113,113,109,97,82,63,49,53,66,77,85,88,86,84,88,97,106,114,114,110,104,102,102,100,92,80,67,52,38,29,23,18,11,2,-1,0,-1,-2,-2,-2,-1,1,0,0,0,0,-1,0,1,5,11,16,18,19,19,23,27,31,33,34,33,29,27,23,20,15,15,17,18,16,15,14,15,17,23,32,45,60,76,91,101,109,111,113,113,112,109,106,101,94,87,81,76,72,71,76,87,103,115,122,129,132,133,134,132,129,119,102,86,74,66,63,65,68,69,68,70,73,75,78,82,86,87,88,87,86,85,88,91,94,96,98,102,104,102,98,87,74,67,67,68,66,70,80,89,101,107,116,124,131,135,137,138,142,148,155,156,153,145,131,114,97,87,80,75,74,76,79,80,81,84,87,90,96,104,116,123,123,119,114,107,106,104,100,96,90,86,80,75,72,70,71,72,68,64,61,62,65,67,68,69,71,74,76,80,82,86,89,92,95,97,101,107,114,122,130,136,139,141,140,137,135,133,132,134,139,143,145,146,146,144,140,137,133,129,129,133,136,140,139,136,130,122,112,104,96,92,91,95,102,113,123,134,140,142,139,135,133,130,127,124,122,121,125,134,141,142,138,130,118,104,81,65,56,54,53,51,50,49,45,43,39,37,36,34,32,32,29,28,27,26,26,31,37,47,58,60,61,59,58,61,64,64,63,59,51,43,36,29,25,20,17,13,7,3,1,0,-1,0,0,0,0,0,1,4,6,8,10,11,15,20,25,30,37,46,57,65,74,81,87,91,93,95,97,102,111,118,127,133,139,146,151,155,159,162,163,163,163,160,156,150,139,126,119,120,123,127,131,136,142,146,148,153,155,153,146,133,118,109,109,116,125,131,133,131,128,125,117,113,109,103,96,90,87,86,87,87,87,95,112,123,131,137,140,140,138,138,136,133,134,140,147,150,149,145,138,130,123,124,129,128,125,122,117,114,119,127,133,138,140,137,128,118,112,115,119,120,119,122,129,133,139,142,142,143,147,150,153,157,157,153,149,142,132,124,117,112,111,112,113,113,113,109,104,97,94,91,87,87,93,102,105,103,100,95,93,97,101,105,109,114,120,124,126,123,118,113,107,100,88,80,73,65,61,61,63,67,72,80,88,94,100,105,107,107,107,104,96,84,73,69,70,74,77,77,78,85,92,101,111,119,125,127,127,126,122,118,117,120,123,124,122,120,117,113,109,107,112,120,125,134,144,154,160,160,157,148,134,130,131,133,133,133,134,133,131,130,129,124,119,111,104,96,90,89,94,106,119,128,131,131,126,117,109,102,95,91,88,86,82,80,78,81,95,112,121,128,128,123,116,107,102,101,103,107,109,112,115,121,130,137,139,137,132,118,100,93,98,108,118,125,130,130,126,119,117,119,120,119,114,105,94,81,73,67,66,66,64,63,63,65,68,71,71,67,61,51,46,53,63,69,73,78,81,84,87,88,88,90,93,97,101,100,95,89,82,72,63,56,51,45,42,40,40,44,52,63,73,77,79,83,84,83,80,77,71,67,61,57,57,56,52,50,47,44,42,42
21,20,19,19,22,25,25,26,27,27,29,29,29,28,27,25,25,23,21,19,18,18,18,18,24,29,32,35,37,40,40,37,36,39,40,40,41,41,42,43,41,41,38,34,31,26,22,21,22,23,26,28,34,37,39,42,42,41,44,49,52,52,51,50,48,44,43,41,42,42,41,40,40,40,43,45,44,45,47,46,45,45,44,44,42,42,41,40,38,36,33,31,30,28,27,29,31,28,22,19,19,18,19,20,21,24,29,34,35,34,33,33,32,33,30,29,28,27,26,26,26,25,24,24,23,22,21,22,25,30,35,40,40,38,40,40,40,39,39,39,40,41,42,42,42,43,44,44,47,48,49,50,48,46,48,50,52,52,52,53,54,54,54,54,55,56,56,57,57,58,59,59,59,59,60,60,60,58,58,57,53,53,55,57,58,57,55,54,51,52,56,60,63,65,65,63,62,61,60,60,60,59,56,52,50,50,53,58,62,68,70,70,69,71,71,73,73,71,72,73,74,75,76,75,76,76,77,76,73,75,79,80,79,75,67,64,63,61,59,57,55,53,52,49,47,46,45,44,43,42,41,41,42,41,41,39,34,32,32,31,32,30,31,33,40,47,49,51,53,54,53,53,51,49,47,47,50,52,53,54,56,58,57,54,53,52,51,50,50,51,57,62,65,67,69,69,69,69,68,69,68,64,62,59,54,52,49,52,54,57,62,65,67,69,68,68,67,69,69,66,60,55,50,48,56,64,72,74,70,69,68,66,65,64,62,59,58,59,62,64,63,62,62,60,54,51,59,68,73,75,76,76,74,72,68,60,54,50,53,59,63,67,70,74,77,78,82,86,89,86,86,84,80,74,68,63,61,58,57,54,50,49,51,60,71,81,89,91,91,87,83,80,77,70,62,56,55,63,71,79,86,90,87,73,60,52,49,49,49,51,53,55,58,64,67,68,70,71,68,62,60,65,69,71,71,72,72,74,73,73,73,71,67,65,60,56,54,50,49,54,56,60,65,74,81,84,80,76,73,68,59,61,66,64,58,55,51,47,41,43,53,58,63,63,60,58,58,56,52,48,46,45,45,44,44,44,43,42,43,45,51,61,70,82,98,108,115,117,118,118,118,121,121,117,115,116,115,112,107,101,105,114,117,116,114,109,102,90,84,89,101,112,116,115,113,106,94,80,68,54,47,56,68,81,91,94,97,96,96,104,111,119,120,118,115,110,101,91,75,62,47,37,26,19,14,11,5,-1,-2,-1,-1,0,-2,-1,0,-1,0,0,-1,-3,-2,-1,1,7,11,15,19,20,21,24,27,31,34,36,36,35,31,28,22,19,21,25,27,26,24,22,21,18,19,23,30,41,54,70,85,97,106,113,117,117,114,109,102,94,87,80,74,71,72,76,81,90,104,115,125,132,136,135,133,127,114,92,81,73,68,66,67,70,72,72,74,79,83,88,92,96,97,98,98,97,96,97,101,103,104,106,109,110,106,96,81,68,68,71,75,73,72,75,83,94,101,110,123,133,140,145,148,152,157,159,158,149,129,112,97,87,82,79,78,78,80,82,84,85,87,90,95,101,106,112,120,122,115,108,101,97,95,88,82,78,76,78,77,75,74,74,75,70,65,63,64,67,72,74,76,78,80,81,84,87,90,94,98,101,104,107,111,116,122,127,132,136,137,134,129,126,127,129,131,136,141,146,149,151,151,148,146,142,139,136,138,142,145,145,142,138,132,126,117,108,103,97,95,99,107,115,127,135,143,146,146,143,139,135,133,130,126,128,134,142,144,140,131,119,101,80,65,60,68,70,63,59,56,53,51,49,48,48,45,41,38,34,30,26,26,26,24,23,26,36,42,41,36,33,34,37,39,40,37,36,32,29,26,20,15,10,8,5,3,2,2,1,1,1,1,1,1,3,5,8,10,12,14,15,18,22,26,32,41,52,61,69,75,82,88,94,99,104,108,114,119,125,131,137,144,150,155,160,164,167,168,166,161,153,140,128,124,124,128,131,135,140,144,148,153,157,159,160,155,141,125,114,117,124,131,137,139,139,135,127,118,107,100,97,94,91,92,95,99,100,96,90,90,102,117,129,138,143,146,147,146,144,142,141,145,150,153,153,149,144,138,132,131,134,134,132,129,123,117,123,132,138,142,143,140,134,126,118,119,124,127,128,131,136,140,146,149,151,152,154,157,161,162,159,153,148,142,134,128,120,116,112,107,104,100,97,96,96,91,87,87,90,97,109,118,121,116,112,107,104,105,109,114,117,121,124,125,122,114,108,103,100,94,85,75,67,65,64,65,69,73,79,86,93,99,105,109,113,113,109,102,89,77,70,72,78,82,85,86,86,90,95,103,113,121,128,131,131,131,128,124,123,127,130,130,129,126,122,117,113,113,116,122,129,136,148,156,162,164,161,154,147,142,141,141,142,143,142,141,142,140,136,131,123,116,108,100,93,91,98,112,126,134,137,130,123,115,110,107,103,98,95,92,87,83,79,78,86,105,123,128,128,125,117,113,111,109,110,115,117,118,119,120,125,135,140,140,139,129,112,102,104,113,125,133,138,136,132,128,126,123,119,116,107,91,78,70,71,73,74,74,73,74,77,78,79,77,72,66,56,48,51,60,69,77,84,89,94,97,100,101,100,102,103,103,103,99,91,79,69,59,53,48,45,43,45,50,52,57,66,74,82,88,93,94,93,90,86,82,78,74,69,65,60,57,53,47,40,36,34,32
22,21,21,23,25,27,27,27,28,32,33,31,30,29,26,24,23,21,19,17,17,19,19,17,21,26,32,35,38,41,41,41,42,46,48,46,42,42,43,43,41,39,38,35,31,27,23,23,23,22,22,23,27,30,35,41,42,43,44,46,52,55,56,54,48,44,43,42,44,43,43,44,43,44,46,44,43,43,44,44,45,45,43,42,41,41,41,42,42,41,39,37,37,36,34,28,25,23,21,21,21,19,19,18,20,21,25,33,35,34,34,33,33,33,32,32,33,32,31,31,31,32,32,33,30,27,24,23,23,25,30,38,40,39,41,41,40,40,41,41,43,44,46,47,48,52,57,57,56,55,52,51,53,51,51,51,56,59,58,58,59,60,60,61,62,63,63,64,64,67,65,62,63,64,65,65,66,65,64,62,59,56,54,56,59,59,57,54,53,54,57,61,63,66,66,66,65,65,63,63,64,62,58,54,50,51,54,59,64,71,75,73,73,75,76,78,81,80,80,81,81,82,82,81,82,82,83,81,79,78,78,77,76,76,73,69,66,65,64,59,56,54,52,50,49,47,46,45,44,44,42,42,42,39,37,35,34,33,32,32,33,31,32,35,39,45,47,49,51,52,52,51,50,48,47,47,50,52,52,54,56,56,57,56,54,52,50,50,49,50,54,60,63,66,69,72,74,74,71,69,70,64,61,61,59,56,52,54,56,59,65,71,74,75,73,72,72,74,73,68,62,55,52,52,59,66,72,74,71,72,71,69,67,65,64,62,60,62,66,71,69,65,64,65,60,54,59,68,74,80,83,84,83,80,73,63,56,52,54,59,65,72,78,82,86,90,95,95,96,94,92,90,84,77,74,71,69,67,64,57,51,50,51,59,69,80,88,93,95,93,88,83,79,75,67,60,58,61,68,75,78,80,74,60,52,51,54,56,57,58,60,64,67,72,73,74,74,75,71,65,64,69,74,76,78,79,80,82,82,81,80,77,73,70,65,59,56,52,51,55,55,58,65,72,81,83,79,73,72,70,64,66,68,66,63,58,54,49,43,45,54,62,66,67,66,68,68,64,57,55,53,49,47,47,47,46,46,45,44,42,44,48,53,61,73,87,98,108,115,119,122,123,124,125,123,121,120,118,115,109,112,120,122,121,122,116,108,95,87,89,103,113,116,115,108,91,72,62,59,58,58,56,65,80,92,100,105,104,105,109,116,122,123,122,118,106,93,75,57,45,36,30,27,23,21,19,16,5,0,-1,-1,0,-1,-1,0,0,-1,-1,-2,-2,1,3,3,4,7,11,15,18,20,23,25,29,34,38,39,38,35,32,25,21,26,30,31,31,30,28,28,26,22,21,22,27,37,48,60,72,90,103,114,116,113,105,97,86,80,78,77,76,76,77,78,81,88,99,113,125,133,138,136,128,110,90,81,74,70,66,65,69,73,76,79,83,88,93,99,103,106,108,110,108,106,107,109,112,113,114,115,113,105,93,77,68,71,77,81,83,83,79,76,80,86,96,114,128,140,148,156,161,163,161,153,136,114,97,89,84,80,79,82,84,86,85,86,88,92,96,100,106,110,113,115,110,102,94,91,89,87,83,82,82,83,83,80,78,77,76,74,66,65,65,67,72,76,80,83,85,87,88,90,93,95,99,104,107,110,113,115,118,123,127,130,133,131,126,123,124,128,132,136,140,144,149,153,155,156,154,153,149,146,144,145,148,151,150,148,145,139,134,126,120,114,103,97,99,107,114,121,132,142,149,151,151,147,143,140,137,132,130,134,142,145,144,137,124,107,87,74,75,87,93,90,86,81,76,70,64,59,54,48,43,40,36,33,32,34,33,30,27,23,21,29,35,33,27,23,20,19,17,14,16,19,20,19,15,11,8,5,4,3,1,1,0,0,1,1,1,1,3,6,9,12,14,15,17,20,22,25,30,36,46,54,60,67,73,78,81,86,91,96,103,112,119,126,132,139,144,150,155,160,164,166,165,159,147,133,129,132,132,133,139,143,147,151,155,160,164,164,164,154,140,125,118,128,138,144,147,146,141,134,123,110,97,95,97,100,104,108,112,112,108,101,93,91,99,112,125,137,143,148,151,152,152,150,150,151,154,158,160,156,152,147,140,138,140,140,138,135,128,122,126,135,140,145,148,144,139,132,124,121,126,133,136,139,143,148,152,154,157,160,161,163,165,166,165,158,150,144,137,133,131,130,125,117,108,99,92,91,92,93,94,98,105,114,122,128,130,127,123,117,116,118,118,121,124,126,127,125,120,111,100,88,77,71,67,65,67,68,70,73,81,84,84,90,98,105,110,114,117,116,110,100,87,74,70,74,83,89,93,97,97,100,103,110,117,122,128,133,135,136,137,134,133,134,135,135,134,130,126,120,118,121,124,128,134,143,153,160,168,171,167,161,155,152,152,151,149,148,146,142,140,138,134,128,119,112,104,98,95,98,104,117,130,138,141,133,124,121,121,117,114,109,104,99,92,86,80,77,82,98,118,126,130,128,125,124,122,122,122,124,127,129,128,127,125,131,141,144,143,138,128,116,112,118,128,137,140,138,133,128,121,113,110,106,95,83,74,71,74,80,84,85,85,86,88,87,85,80,73,64,54,50,54,63,71,80,89,95,103,108,111,113,113,112,109,105,100,91,81,71,64,61,57,52,48,46,52,60,63,69,76,84,92,99,102,102,97,90,84,79,75,72,69,65,60,55,45,39,39,42,43,41
25,22,23,24,26,29,29,29,31,35,35,32,29,25,20,20,20,19,19,20,20,19,19,18,20,25,32,37,42,43,45,47,49,50,49,47,44,44,43,43,41,38,36,32,31,29,26,26,25,23,22,23,22,24,29,33,36,36,36,39,44,47,52,53,51,49,48,46,45,44,44,42,41,41,42,44,45,44,43,44,43,40,38,37,36,35,36,38,39,37,36,36,38,35,30,25,24,22,21,20,19,19,20,19,19,20,23,28,37,39,36,34,34,36,35,35,35,36,36,36,36,37,37,37,37,32,27,25,24,24,25,31,37,39,41,42,42,42,44,46,49,50,51,53,53,57,59,58,58,61,60,59,59,54,51,50,55,60,60,60,62,64,66,67,68,70,73,73,76,76,71,71,70,69,69,70,71,72,68,66,63,59,57,59,60,61,60,56,55,57,59,64,69,71,72,73,72,71,70,67,65,62,58,54,53,56,58,63,67,74,81,83,85,85,86,87,86,87,88,88,89,89,89,88,89,90,89,88,87,85,82,76,74,77,77,71,67,65,63,60,56,53,51,49,48,47,46,45,44,43,43,42,40,36,35,35,33,32,33,32,32,33,34,37,39,44,46,49,51,51,51,50,49,48,48,50,53,54,55,57,58,59,58,58,57,55,52,51,50,51,54,57,60,65,69,72,75,76,76,75,73,69,65,63,59,56,54,54,57,62,66,72,78,80,80,79,79,79,76,72,67,59,57,55,60,66,72,76,75,76,75,73,71,70,68,66,66,67,69,75,71,68,70,70,62,54,60,69,75,81,88,92,89,81,73,67,58,53,54,60,66,75,84,88,92,96,100,103,104,103,99,94,87,81,80,79,77,73,67,59,54,51,52,58,66,75,83,90,94,95,93,88,83,77,71,64,60,60,68,74,76,73,67,58,53,54,58,63,65,68,70,73,75,80,81,80,80,80,76,69,67,73,79,83,85,88,89,90,90,88,86,83,79,73,68,63,61,57,54,53,55,57,62,70,78,81,79,74,69,63,59,62,67,70,71,66,59,53,47,46,53,60,64,68,70,71,70,64,60,57,50,46,48,52,54,52,50,49,47,46,45,44,47,52,58,68,80,90,101,111,120,126,129,130,128,126,125,123,122,118,120,124,124,123,120,116,108,100,94,92,103,113,116,113,99,79,68,72,76,76,71,64,67,80,92,103,113,119,120,123,126,127,124,117,107,93,76,60,49,43,40,37,34,31,31,31,28,14,2,-1,0,0,-1,-1,-1,-1,-1,0,-1,0,1,3,5,6,9,11,12,14,17,20,22,25,30,36,40,41,40,36,29,24,29,34,35,37,37,35,32,30,28,27,26,24,27,31,38,52,68,87,104,110,108,103,94,84,81,84,84,85,84,85,85,86,87,93,104,118,130,136,135,128,111,91,81,76,71,66,65,68,72,75,79,84,90,97,103,107,111,117,120,121,121,121,121,123,124,123,121,116,106,92,77,69,72,77,83,86,90,90,84,80,81,87,100,116,134,147,160,166,165,160,144,121,103,92,89,83,80,81,85,91,92,88,89,93,95,99,102,108,112,112,110,104,99,94,91,89,89,87,87,87,89,88,85,82,78,77,74,66,67,68,72,76,79,82,85,88,92,93,96,99,102,107,109,111,113,115,118,122,124,128,129,127,125,120,117,121,127,132,135,139,146,151,154,158,160,160,158,156,154,152,152,152,154,153,151,147,142,134,128,121,113,106,100,101,107,113,122,129,140,149,153,156,155,152,148,144,142,139,138,145,149,150,144,133,117,99,88,89,102,110,111,106,98,90,82,73,64,57,50,43,40,38,39,41,38,35,30,25,19,15,20,29,30,26,21,14,9,7,7,5,5,8,8,8,8,7,6,4,2,2,2,0,0,1,1,1,2,5,7,10,12,15,17,19,20,21,22,25,30,37,44,49,54,58,60,62,65,70,78,90,99,109,116,122,128,135,141,147,153,157,161,162,158,150,138,137,141,141,139,143,150,155,160,164,167,169,169,165,154,139,127,131,141,148,152,152,147,142,134,123,110,98,98,106,116,121,123,123,119,112,101,93,97,102,110,121,132,141,147,153,156,158,158,159,160,162,163,164,164,160,154,149,144,145,146,145,141,136,128,130,139,144,149,152,150,146,140,134,129,129,138,144,147,150,155,159,162,165,167,170,170,169,168,165,159,152,147,144,143,141,138,132,124,111,98,93,95,102,109,115,119,124,129,135,138,137,135,132,129,126,126,126,127,126,125,126,126,120,110,99,84,70,64,65,70,74,77,82,86,93,97,99,101,105,111,116,120,121,119,113,101,88,78,73,72,78,86,93,99,103,107,111,114,119,124,130,136,140,141,142,140,141,142,143,142,139,134,129,123,124,129,133,136,141,148,157,164,170,171,167,160,155,152,150,150,148,143,139,133,129,124,119,114,106,102,99,100,103,108,115,127,139,146,145,139,134,133,132,127,122,116,110,103,96,87,80,79,85,99,120,132,136,135,135,135,135,135,136,137,139,139,137,133,129,132,139,144,148,147,143,136,129,127,133,137,139,134,123,112,101,94,89,85,83,80,75,74,79,88,92,93,94,96,97,94,89,81,74,66,57,52,57,65,74,83,93,101,108,115,118,120,119,115,109,100,90,80,73,65,60,58,54,51,49,49,55,64,70,79,85,91,99,105,107,103,97,85,75,69,64,63,62,60,55,47,41,43,48,52,52,50
24,25,28,28,29,31,33,34,36,37,36,34,28,21,19,18,21,22,22,22,21,20,21,21,23,25,29,33,40,46,47,43,45,47,43,42,42,44,44,44,43,42,39,35,31,30,29,27,24,25,23,23,23,24,23,22,26,31,35,36,37,40,41,47,49,50,50,48,47,47,46,44,43,42,43,44,46,46,45,44,39,34,33,28,26,25,25,25,27,29,28,26,25,24,22,20,20,20,20,21,20,20,20,20,20,21,23,27,33,39,38,36,36,37,38,39,40,40,40,41,40,40,41,42,42,41,37,30,27,25,24,25,29,34,37,41,43,45,48,52,54,56,57,58,59,61,62,63,63,65,68,67,63,58,54,52,53,59,60,59,64,68,70,72,74,76,80,82,84,81,78,78,79,80,79,78,76,74,71,69,66,63,60,60,61,62,61,59,59,59,62,65,70,73,76,79,80,81,79,77,73,65,59,55,57,61,66,68,72,80,87,92,95,97,98,95,94,96,97,97,98,99,99,98,99,97,95,92,87,81,76,70,69,69,67,65,61,58,58,57,53,50,47,46,45,46,46,46,45,44,42,42,40,36,34,34,33,33,32,33,31,34,37,41,44,47,49,52,54,54,53,51,50,50,50,53,56,56,59,63,63,63,62,60,58,56,54,53,52,54,57,59,62,67,71,75,77,79,76,74,74,70,67,64,63,59,58,57,61,65,71,76,80,83,84,86,87,87,80,75,66,56,54,55,60,67,73,79,80,81,80,78,77,76,75,74,74,71,71,74,73,73,74,75,67,58,62,71,77,85,92,89,81,77,75,67,59,55,55,61,66,74,83,92,97,103,109,110,110,109,105,99,94,88,84,81,78,74,68,59,55,53,55,56,61,67,75,84,91,95,95,92,87,80,73,66,63,61,69,74,73,73,67,58,53,54,60,68,74,77,79,83,85,88,88,88,88,86,82,74,72,79,85,89,92,96,98,100,101,100,95,90,86,80,74,69,64,59,55,56,57,57,62,72,80,83,82,79,72,65,60,61,70,76,77,74,65,55,49,47,52,61,67,71,74,75,72,68,61,54,46,45,47,51,56,59,57,55,52,49,49,48,46,46,47,54,63,72,81,93,109,120,128,131,132,132,131,130,128,124,125,125,126,125,125,121,113,106,96,93,103,113,114,108,94,77,77,84,86,85,79,70,70,80,93,108,121,127,129,129,126,119,108,98,88,76,59,48,45,45,43,41,38,37,36,35,33,22,6,0,-1,-1,-2,-2,-1,-1,0,0,0,0,2,5,9,12,12,14,15,17,17,18,22,26,30,35,41,44,44,40,33,28,31,35,38,40,40,39,36,34,32,31,32,33,29,27,30,39,53,72,88,99,103,103,98,91,86,88,90,91,93,95,95,95,95,98,102,114,128,137,136,130,117,101,89,82,75,71,68,67,70,71,74,80,86,91,98,105,111,118,124,129,132,135,137,136,136,132,128,120,105,89,75,71,74,81,87,92,94,96,92,88,86,88,100,116,134,147,158,161,156,146,128,110,98,93,88,83,82,85,90,92,93,94,94,96,98,100,104,110,112,113,110,104,101,97,94,91,90,90,90,94,95,92,88,86,81,77,75,71,69,68,70,71,73,75,80,83,90,96,99,103,106,109,110,110,111,112,116,117,119,123,127,125,120,116,114,116,119,126,134,141,146,151,156,160,164,163,164,164,162,161,159,157,155,153,149,143,133,119,113,108,106,104,105,105,107,115,123,130,138,148,155,160,161,158,156,153,150,147,147,151,154,155,151,145,135,123,114,110,117,124,122,114,104,94,86,74,65,56,49,42,41,45,47,47,42,36,31,25,21,16,12,13,16,17,14,11,8,7,4,3,2,3,2,3,4,4,4,4,2,2,1,0,1,1,2,2,4,6,8,10,12,13,14,14,14,15,17,19,25,31,33,36,38,38,36,36,37,40,48,62,77,89,98,103,107,114,123,132,140,147,155,159,159,154,146,143,147,148,146,148,157,164,168,171,174,174,172,165,153,138,136,144,151,158,159,158,151,144,136,125,115,106,102,108,121,131,134,132,127,117,104,96,101,109,114,121,130,138,142,150,155,157,160,162,164,167,168,170,170,167,162,158,152,150,152,151,147,141,134,134,142,149,156,158,157,154,148,143,136,134,142,149,152,157,163,167,170,173,176,178,177,176,172,167,162,157,153,151,149,145,142,137,128,115,102,95,96,106,116,126,132,138,143,147,146,144,141,138,135,135,133,129,124,121,119,122,122,117,109,95,79,68,65,70,79,87,93,99,105,109,111,113,114,115,119,123,127,128,124,117,106,92,83,78,76,75,77,81,88,95,100,107,112,118,124,130,135,140,142,145,146,147,147,147,147,143,138,131,127,129,134,141,145,150,156,163,169,173,169,162,155,148,144,144,141,138,135,129,126,122,116,111,107,104,104,104,107,108,113,127,140,148,150,152,152,148,145,140,134,127,120,112,104,93,85,81,83,91,107,123,133,138,140,141,142,144,146,148,148,148,146,142,137,133,134,136,143,149,151,152,149,142,140,142,142,139,128,113,103,101,98,94,90,87,84,82,80,81,90,98,102,103,103,101,97,91,84,76,69,61,55,56,63,73,83,93,101,111,117,120,120,117,111,98,81,70,64,60,56,54,53,53,55,57,60,63,70,76,84,92,98,104,108,107,103,94,83,73,67,63,58,54,51,49,46,47,51,55,56,54,51
25,28,29,28,30,33,36,38,39,38,37,33,24,22,20,20,20,19,23,26,24,24,27,27,26,28,32,31,30,36,40,41,42,46,46,43,43,43,42,43,43,40,38,35,32,29,30,29,27,25,25,24,23,24,24,23,23,28,33,36,36,40,42,44,49,52,52,50,48,46,46,44,45,48,48,46,45,45,44,43,36,33,30,28,27,26,26,27,25,26,28,25,22,20,19,19,21,21,22,24,24,24,22,21,21,23,24,26,29,32,34,35,37,37,41,43,44,44,45,46,46,46,48,47,47,43,39,33,30,28,27,26,26,30,33,38,42,45,50,54,57,59,63,66,68,68,69,71,71,71,74,74,73,67,59,56,55,57,59,61,65,69,73,77,80,82,85,88,89,90,92,93,96,90,86,84,82,80,76,72,69,66,62,63,65,67,67,64,62,61,63,68,73,77,79,82,85,86,83,82,76,65,61,56,57,65,70,74,80,85,88,93,98,98,101,103,105,105,107,109,110,109,110,108,106,103,98,88,78,70,66,62,57,52,49,48,48,49,48,48,46,45,44,42,42,44,45,46,47,45,43,41,39,35,33,34,34,34,33,33,33,36,39,44,49,52,53,55,56,56,55,53,52,51,53,56,59,62,66,69,70,69,68,65,61,58,55,54,55,58,60,63,67,71,75,80,82,84,84,82,79,74,72,67,64,61,57,59,64,68,73,80,85,89,93,96,96,92,85,77,69,60,58,58,62,67,73,81,85,90,92,91,90,89,86,86,84,81,80,82,80,78,77,78,71,61,65,74,80,85,91,87,79,77,72,64,58,55,56,61,66,72,81,93,101,109,114,116,116,113,110,106,99,95,91,84,78,72,67,58,54,53,55,54,58,65,72,79,86,92,95,93,89,83,75,70,65,61,65,69,71,70,65,59,55,54,60,66,76,83,87,90,92,95,96,94,92,92,88,78,75,80,90,95,101,109,114,115,115,111,104,98,91,84,77,70,65,58,54,55,55,57,63,70,80,84,83,80,76,70,64,64,71,77,79,80,69,59,53,49,50,60,67,72,76,78,74,69,62,54,49,47,47,52,56,61,62,62,60,56,54,52,51,49,48,49,50,60,70,79,90,105,117,126,133,137,139,138,135,131,130,129,131,132,129,123,116,107,100,101,111,118,117,107,91,81,87,96,96,92,88,85,85,93,101,113,123,128,127,122,113,99,83,68,59,49,42,35,31,35,38,38,37,37,36,35,32,22,9,1,-1,-1,-1,-1,-2,0,0,1,0,0,2,6,9,12,15,17,19,21,22,22,25,28,32,38,42,46,47,45,40,33,31,36,41,43,44,44,41,39,38,37,37,37,36,32,30,33,41,56,74,91,98,102,102,98,94,92,94,98,100,101,103,104,105,110,116,122,129,135,136,134,125,113,102,91,82,76,70,68,70,71,73,74,75,78,84,90,102,114,124,133,139,145,148,150,148,144,135,121,107,92,79,74,75,80,85,92,98,100,100,99,99,100,109,120,133,143,149,148,135,121,109,99,94,91,85,82,83,87,91,95,98,101,102,104,105,106,108,113,114,115,113,107,102,95,97,98,94,92,96,98,99,96,90,85,81,76,73,70,69,69,70,70,71,72,74,73,77,83,91,100,104,105,101,99,98,99,100,103,108,113,115,112,112,115,121,124,125,126,131,137,142,148,154,161,166,167,170,173,172,169,166,161,157,151,143,135,121,113,115,117,118,118,116,112,108,115,125,134,141,148,155,161,165,166,164,161,158,156,156,159,163,164,160,156,151,147,142,136,134,133,123,110,98,87,78,69,61,54,47,45,50,56,56,52,49,43,36,30,25,19,14,12,11,10,9,8,9,9,10,11,10,6,3,1,2,2,2,3,3,2,1,0,0,1,2,3,5,7,9,10,9,8,6,7,7,9,12,15,18,20,19,21,19,16,16,20,24,29,38,47,58,67,73,77,76,83,92,101,115,132,145,153,157,157,154,150,151,155,156,157,161,168,172,177,179,177,173,166,153,142,149,155,163,167,166,162,157,149,140,129,121,110,105,110,125,138,142,141,132,123,112,103,101,103,109,118,124,131,135,139,143,149,153,157,162,167,171,174,175,174,170,168,163,159,159,157,151,145,138,139,147,155,160,163,163,160,155,150,145,142,146,152,158,165,170,174,178,181,184,185,183,181,177,173,167,160,155,150,144,140,138,133,128,120,110,100,97,102,115,128,136,143,149,151,150,147,145,143,139,135,131,123,116,105,102,106,110,109,103,95,79,68,67,75,85,95,103,112,118,123,124,123,124,126,128,131,132,132,128,120,110,100,91,85,82,81,79,76,77,81,82,85,92,105,116,124,132,138,141,144,146,146,148,149,149,147,143,136,132,132,136,143,148,156,163,168,172,175,171,165,159,151,143,140,137,132,128,124,120,117,113,110,108,108,111,111,115,117,122,134,146,154,158,159,159,156,150,141,133,126,118,108,97,87,82,82,89,100,115,127,134,137,139,142,141,143,145,148,150,152,151,146,143,142,143,143,145,147,151,156,156,154,152,151,146,137,125,114,109,109,106,103,99,95,93,90,86,85,93,103,108,110,109,104,97,91,84,78,71,66,64,59,61,70,81,91,101,111,116,120,119,115,105,87,73,68,64,60,56,58,61,62,66,69,72,77,81,85,90,96,102,106,109,106,97,88,81,76,70,65,60,54,55,58,59,60,61,59,56,50,44
29,33,32,31,33,35,36,37,39,39,37,32,28,25,22,21,26,29,30,32,34,35,36,35,34,35,36,34,33,35,38,40,40,41,42,39,39,37,34,33,35,33,31,30,29,30,29,28,30,28,27,25,25,24,23,23,24,27,30,32,35,40,43,46,50,56,57,52,49,47,47,46,47,46,46,45,45,46,39,32,27,26,26,26,26,26,27,28,28,31,32,29,26,24,24,24,24,23,24,26,25,24,23,22,23,24,24,27,30,32,34,37,38,40,42,44,46,49,51,52,52,53,53,53,53,50,46,41,38,32,28,27,28,27,29,33,38,43,47,53,59,62,68,73,75,76,78,79,78,78,78,80,78,71,65,61,61,60,62,62,62,63,65,70,77,86,92,97,100,102,105,108,108,101,97,93,89,85,81,77,74,70,67,69,72,73,72,69,66,63,66,73,78,84,87,90,93,92,87,84,78,70,62,58,57,61,71,79,84,92,96,102,104,106,109,112,115,118,121,121,118,117,116,113,109,102,93,84,73,62,57,55,53,51,51,52,52,51,50,48,47,46,44,42,43,40,42,43,44,45,43,40,37,36,34,34,34,33,32,32,34,37,41,46,52,55,56,59,60,59,58,56,54,54,56,60,64,70,72,74,75,72,70,68,64,59,57,56,58,60,63,66,69,74,80,85,87,91,94,92,85,79,76,69,66,65,61,61,67,73,76,84,90,98,103,106,106,99,91,84,76,66,59,58,63,67,73,81,86,92,98,96,97,98,97,95,94,91,90,89,88,87,84,79,72,64,69,76,82,84,86,86,83,82,75,66,60,58,58,60,64,70,78,91,100,110,118,122,122,121,117,111,104,97,92,85,78,71,63,56,52,52,54,56,58,63,68,76,83,90,94,95,93,88,81,73,65,62,64,68,71,70,66,61,56,55,60,65,73,84,90,95,98,101,102,101,100,101,97,88,80,82,91,102,110,117,124,128,124,119,112,105,97,88,79,69,61,56,54,54,54,57,62,68,76,83,84,83,80,76,68,64,73,80,83,83,72,62,56,51,51,55,62,74,80,79,74,69,63,56,50,48,48,51,57,62,65,65,64,61,58,56,55,53,50,49,49,51,58,66,76,88,102,115,126,133,141,141,140,139,137,135,136,142,140,132,121,108,106,113,117,121,118,106,92,93,104,109,107,105,104,104,103,105,110,115,118,118,110,100,90,75,59,47,38,33,30,23,20,21,24,27,29,29,29,27,25,20,11,3,0,-2,-1,0,0,1,2,2,2,0,-1,2,6,11,14,16,19,23,25,27,29,32,35,39,45,49,50,49,45,40,34,36,41,46,49,48,47,46,44,43,42,40,40,36,33,32,38,46,61,79,92,100,103,105,103,100,98,101,106,110,112,114,116,119,126,132,136,137,134,128,123,115,104,93,85,79,74,71,69,71,72,74,74,75,75,78,85,96,113,128,140,150,155,159,157,151,140,123,107,91,80,75,76,79,85,92,100,106,110,112,113,115,117,122,132,139,136,126,115,103,95,91,86,85,85,86,87,88,89,92,98,104,108,110,112,115,116,118,119,119,115,110,104,99,101,102,101,101,103,102,102,98,91,84,77,72,69,71,74,76,76,77,78,78,77,75,73,75,80,87,92,91,88,86,87,91,95,96,97,100,104,107,115,122,127,132,135,136,135,137,139,143,152,159,165,169,172,175,174,173,169,161,154,145,137,127,118,115,122,128,131,129,123,116,112,115,124,133,141,148,156,163,168,170,171,169,168,166,165,168,171,171,169,167,164,159,155,151,143,128,104,87,75,64,57,55,52,49,50,56,62,64,62,59,55,51,45,39,33,26,23,21,18,17,19,18,19,20,21,19,16,12,7,3,2,1,2,2,1,1,1,0,0,0,1,2,4,7,8,6,4,2,4,6,9,11,12,13,13,12,13,15,15,13,13,17,22,27,32,36,43,51,55,53,51,59,69,77,94,116,135,147,156,160,162,160,157,159,164,165,168,173,178,182,183,181,177,169,157,152,160,166,172,174,173,168,161,153,142,132,121,111,109,116,132,144,148,146,139,133,123,114,107,103,102,105,111,116,118,118,123,129,139,149,160,167,171,175,178,179,178,176,171,169,167,163,158,151,145,143,150,159,165,169,169,167,164,158,153,153,155,160,165,172,176,181,185,187,190,191,191,186,181,174,165,156,150,145,138,131,125,120,116,116,111,104,98,97,106,120,132,141,148,151,153,151,148,145,139,133,127,120,113,104,98,92,91,92,91,84,75,69,71,81,92,103,112,119,126,129,130,131,132,133,135,137,138,137,132,125,115,105,98,95,92,88,83,81,85,87,83,80,81,89,101,114,122,128,135,137,137,139,142,146,148,149,148,145,142,139,140,145,151,159,166,171,173,172,167,159,154,148,141,138,138,137,135,129,123,117,113,111,112,116,118,118,121,125,128,134,146,156,162,164,160,153,144,135,127,121,112,101,93,87,83,86,96,110,121,125,124,121,118,117,119,121,125,133,139,145,150,150,149,151,153,154,154,153,155,158,160,161,160,156,150,140,129,123,119,117,115,111,107,101,98,95,90,91,97,105,111,113,111,105,98,91,83,78,75,69,64,60,64,71,78,90,101,111,117,120,120,115,104,88,78,73,69,65,62,65,70,71,74,78,82,87,90,94,98,104,107,108,107,103,94,86,80,74,69,65,59,56,62,66,67,66,61,55,49,41,32
31,36,36,37,39,39,38,37,37,35,32,28,26,24,22,21,27,33,34,30,31,33,36,36,37,37,38,38,38,37,39,39,40,41,38,34,33,32,31,31,30,30,28,28,29,30,31,33,32,31,28,26,25,25,24,24,25,25,26,30,34,39,41,43,46,50,54,53,50,50,50,47,47,43,40,38,38,35,29,26,25,24,24,27,29,30,30,31,34,36,32,30,28,28,31,30,28,27,26,27,27,26,25,25,25,25,25,27,29,32,33,37,38,41,42,44,47,50,53,54,54,57,60,60,59,57,55,50,45,39,35,29,28,27,28,31,35,40,44,50,56,64,70,75,79,84,86,87,87,86,84,81,77,75,74,70,66,65,65,66,67,66,64,65,68,74,85,97,105,111,113,116,114,110,106,101,96,92,87,82,78,74,74,77,79,77,77,73,70,68,68,75,82,88,92,94,96,96,92,85,82,77,72,66,63,63,71,79,85,90,95,102,106,112,116,120,121,123,124,122,120,117,114,112,106,95,86,75,67,62,58,55,53,52,54,57,57,57,55,54,54,51,48,46,45,43,41,37,39,41,39,39,37,36,35,34,34,34,32,33,35,38,44,49,53,57,60,62,62,61,59,57,56,57,60,65,70,72,71,75,77,76,74,72,66,61,59,59,62,64,65,69,72,77,83,88,90,94,95,91,87,81,76,70,65,62,61,61,65,73,82,92,98,109,116,118,115,107,101,91,80,70,64,61,64,66,72,83,89,94,99,99,99,100,100,97,95,91,91,91,89,86,82,79,72,64,69,77,82,86,87,85,83,82,77,68,63,59,58,60,65,69,74,83,92,104,116,123,125,125,120,113,105,96,89,83,76,66,58,54,52,52,53,55,58,64,68,74,79,88,94,96,94,89,83,73,67,64,65,69,72,70,67,62,58,56,60,65,70,79,88,96,102,107,109,113,114,112,108,102,95,94,100,111,120,127,134,135,131,121,110,104,94,83,72,64,60,58,56,56,55,56,59,63,71,79,82,82,82,77,70,67,74,83,86,85,73,62,56,55,56,57,58,69,81,84,81,74,63,56,52,49,48,51,55,64,71,72,70,66,63,60,59,55,52,52,51,49,50,55,63,70,82,97,113,124,134,143,145,145,145,145,144,146,145,137,124,112,112,119,124,125,118,104,97,104,113,118,120,121,121,119,116,111,110,110,104,91,74,65,63,56,51,45,39,32,24,18,13,10,12,16,18,19,18,19,20,17,10,4,0,-2,-1,0,1,2,2,2,2,2,1,-1,0,5,13,17,20,25,28,31,33,36,40,44,48,52,54,54,51,46,40,36,40,46,50,52,53,51,50,50,48,46,45,40,37,32,35,42,51,66,84,96,102,106,107,105,103,104,108,114,119,122,124,128,129,131,134,130,120,105,99,96,93,90,84,79,75,72,71,73,75,77,79,78,78,78,80,86,100,118,136,150,158,161,161,156,142,124,108,92,80,78,77,79,85,91,101,110,117,120,123,125,126,129,131,132,122,110,103,96,91,88,87,89,90,92,93,94,95,95,97,101,104,110,115,119,121,123,123,121,115,112,107,104,105,106,105,105,106,106,101,95,87,76,71,72,75,76,78,81,84,85,85,85,83,79,75,74,78,82,84,84,86,88,90,92,98,104,107,111,115,118,125,131,134,139,143,144,146,147,146,148,151,156,164,170,175,177,174,171,167,160,151,142,135,129,123,122,130,138,140,135,127,119,117,124,132,139,146,152,158,163,169,173,176,177,175,174,175,176,177,176,175,174,171,168,164,156,144,126,99,83,76,68,63,60,59,59,63,69,72,72,70,67,62,56,51,45,39,33,30,27,25,24,26,25,24,24,22,20,17,13,8,4,3,3,3,2,0,-1,-1,-1,0,1,1,1,2,5,4,4,3,5,8,11,15,18,22,27,29,29,30,32,29,24,18,17,21,24,27,32,36,40,43,46,51,61,73,85,100,119,135,146,154,161,165,167,167,165,167,171,174,179,183,187,188,186,181,173,164,161,168,174,179,179,177,171,163,155,140,124,115,114,121,133,144,151,155,153,149,142,133,125,115,108,108,108,109,111,117,121,123,123,124,133,146,159,168,174,179,183,183,182,179,177,175,170,165,160,155,151,156,164,171,175,176,175,173,169,167,166,168,171,176,179,182,187,189,190,192,193,191,186,180,176,170,163,160,156,149,141,131,120,110,106,104,101,99,98,100,108,121,135,145,151,152,151,147,142,137,133,127,120,112,105,99,92,85,80,77,73,70,68,75,82,95,109,116,120,122,124,125,128,131,133,136,140,141,140,136,129,121,114,109,105,98,90,90,93,97,98,94,88,83,83,93,103,112,117,119,119,119,122,128,136,142,146,148,150,150,149,148,152,157,163,169,173,174,172,165,155,150,147,146,143,142,142,138,131,122,118,117,118,122,127,128,127,129,132,135,140,150,158,159,157,148,140,135,128,122,116,110,101,95,91,86,86,97,109,110,104,101,97,97,95,97,98,100,105,115,127,137,146,151,154,157,160,161,162,161,163,165,165,164,162,156,146,136,129,126,122,119,115,108,103,99,94,94,97,103,110,114,115,111,103,95,88,80,72,68,65,63,68,76,83,89,96,105,113,120,124,123,115,102,90,83,79,76,71,66,71,78,81,83,87,92,97,102,106,109,111,111,111,108,103,92,86,80,73,68,65,61,60,66,68,65,59,51,42,32,24,19
31,36,38,38,42,46,42,37,34,31,29,26,24,22,23,24,25,28,28,27,29,29,32,34,35,34,35,36,35,37,39,41,42,40,38,33,31,31,30,30,30,30,28,29,31,35,34,33,32,30,29,29,27,26,26,26,26,26,25,27,30,33,34,38,43,47,50,52,52,50,50,47,42,38,34,29,29,28,26,25,25,25,27,29,31,32,32,35,38,37,32,30,30,30,31,32,31,28,28,27,27,26,26,26,25,26,27,27,29,33,37,40,42,41,42,45,48,51,54,55,57,62,64,64,61,59,56,51,45,38,32,29,27,26,26,28,33,37,42,47,54,61,69,77,82,88,92,94,96,100,98,92,85,80,79,78,76,73,71,71,70,70,70,69,69,69,71,78,90,100,108,113,115,115,114,112,107,102,96,90,84,78,78,83,86,85,82,78,74,71,69,73,84,94,99,100,100,96,92,89,88,83,80,76,73,67,68,75,85,91,97,104,110,115,119,121,120,116,114,114,112,105,101,96,89,81,75,69,67,62,57,55,53,54,55,56,58,58,58,56,54,51,49,46,45,43,41,37,36,37,37,37,37,36,35,34,35,34,34,34,36,40,44,48,53,58,61,63,63,63,62,60,60,62,65,68,73,77,77,80,82,79,75,70,64,61,60,62,66,70,72,75,77,80,86,90,94,94,92,85,78,71,71,72,68,64,62,63,66,73,85,97,106,113,120,123,120,116,110,98,84,73,66,62,61,63,73,84,91,99,104,106,107,106,105,100,95,91,93,93,91,86,81,77,71,61,65,77,83,85,86,86,84,80,77,69,64,60,58,60,63,68,72,78,84,92,107,118,123,124,121,115,106,95,86,76,68,59,56,56,55,53,52,54,58,66,71,74,77,85,93,97,97,93,86,77,69,65,64,67,70,71,67,63,58,56,58,63,68,75,84,93,100,107,115,123,128,126,121,117,113,110,113,120,128,133,135,134,126,110,97,87,78,66,63,61,59,60,60,60,57,56,57,61,66,73,81,82,82,79,73,68,74,83,87,84,70,64,65,63,62,64,65,70,81,87,86,78,66,59,54,50,49,52,57,67,76,77,75,73,70,66,62,60,58,56,55,53,54,53,54,61,69,79,97,115,128,138,145,148,151,152,150,151,147,136,125,116,121,130,135,131,119,106,106,116,123,129,132,131,130,126,121,113,107,98,84,67,53,41,36,41,45,41,37,35,31,25,17,10,6,5,8,12,12,13,14,13,9,6,4,2,0,-1,-1,0,0,0,-1,0,1,0,-1,-1,3,13,22,27,30,34,36,41,46,50,54,57,58,58,55,51,46,41,40,45,51,55,56,56,57,55,52,50,49,45,41,37,35,40,48,58,74,88,98,105,108,109,108,107,109,115,120,123,126,130,129,127,121,113,100,89,83,80,78,77,75,74,73,72,73,76,78,81,83,82,82,81,80,84,95,109,128,143,152,157,159,154,143,129,110,93,83,79,80,83,86,91,98,111,122,127,129,131,131,129,126,122,113,103,97,93,90,89,90,92,95,99,101,102,102,101,100,99,100,105,113,119,125,127,126,125,119,114,110,108,108,109,109,111,112,107,100,92,83,75,73,76,79,82,84,88,91,93,92,90,85,79,77,78,79,80,83,86,92,98,100,97,96,99,106,113,120,126,130,135,140,145,149,151,154,156,157,159,158,161,166,173,178,180,177,173,168,161,153,146,141,135,128,130,140,146,147,142,135,127,120,124,133,141,147,153,159,164,170,175,179,181,181,182,182,180,179,178,176,171,169,168,165,159,149,134,117,101,93,82,75,69,66,69,72,75,76,76,75,72,65,58,52,45,39,34,30,28,28,27,27,26,23,20,18,13,10,7,5,4,1,0,1,0,-1,-2,-1,0,0,0,0,0,0,2,2,4,5,7,8,10,13,19,27,36,41,45,45,44,39,30,24,25,30,35,37,39,42,46,52,59,67,76,86,95,106,120,131,143,151,160,167,171,173,173,172,173,178,184,188,191,193,192,187,180,172,170,176,183,185,185,180,174,164,150,132,119,117,126,136,144,152,159,162,162,157,151,142,134,123,117,117,117,122,128,133,135,135,132,129,129,137,148,159,170,178,184,187,188,187,185,182,179,175,170,166,163,164,170,178,182,184,184,184,182,181,180,179,181,184,187,188,190,191,190,189,187,186,184,180,179,176,172,166,160,151,143,135,121,110,106,106,106,106,104,102,102,111,128,141,148,152,151,146,140,132,123,116,113,108,102,99,97,95,93,86,78,69,69,78,84,94,105,110,108,105,107,110,115,119,125,132,139,144,145,142,136,129,123,116,106,95,94,101,108,111,109,105,97,88,84,88,94,98,98,96,96,97,101,111,121,131,139,146,152,155,156,158,160,164,169,174,177,177,172,165,157,153,150,146,144,139,136,134,125,123,123,126,131,134,134,134,134,136,140,143,147,149,150,144,129,119,116,119,120,120,119,115,109,104,97,89,86,89,92,92,91,94,97,99,100,102,102,101,101,102,107,116,127,141,151,153,155,157,159,163,166,167,168,166,164,158,147,135,126,122,117,112,106,101,99,99,99,103,107,111,116,117,113,108,99,87,76,70,69,71,73,76,81,88,95,100,106,112,119,123,126,125,116,105,96,90,84,80,74,70,76,83,89,92,96,101,107,111,114,116,115,113,109,105,101,94,88,82,77,72,67,65,66,68,65,58,47,35,26,20,17,13
31,35,38,39,40,45,42,36,34,30,27,26,24,25,26,24,23,25,24,26,27,29,32,30,28,27,30,32,33,33,34,34,36,37,35,32,31,32,31,31,32,31,32,34,40,42,39,37,35,33,33,31,30,29,26,24,24,25,25,29,31,32,33,36,39,43,47,54,55,52,50,45,41,34,29,28,28,28,28,28,29,29,30,31,33,35,36,41,42,41,36,34,37,37,36,34,34,32,30,29,28,28,27,27,26,26,28,30,30,33,39,43,45,45,46,48,52,54,56,58,60,62,66,66,63,60,56,47,37,33,32,31,30,28,27,28,30,34,38,43,48,55,64,73,81,88,94,100,109,111,107,105,101,93,89,89,87,81,77,76,76,76,75,71,71,73,74,76,77,79,85,97,111,119,121,123,120,114,107,99,93,85,85,91,94,92,87,82,78,75,73,73,83,94,102,106,106,102,97,91,85,82,80,79,76,67,65,73,84,92,101,106,112,115,116,115,113,105,97,92,86,84,81,79,77,74,72,68,65,60,58,55,54,56,56,56,57,57,56,55,51,49,45,46,44,42,39,36,36,37,36,34,35,35,34,35,34,34,36,36,37,40,43,47,52,57,61,64,65,66,64,62,62,65,68,72,77,81,84,85,84,82,78,69,63,63,65,69,72,73,75,76,80,83,88,91,93,93,87,80,75,76,76,78,75,71,69,70,68,72,86,99,110,120,128,131,130,126,117,105,88,77,71,67,61,61,71,83,93,100,106,113,115,112,109,105,100,96,95,96,94,91,83,77,72,63,65,75,82,86,88,87,85,81,78,71,66,63,60,61,62,65,68,73,80,87,99,111,118,121,118,113,105,95,84,73,67,60,57,56,57,56,54,54,56,59,65,71,76,84,92,97,98,95,89,80,73,67,65,66,69,70,68,65,61,57,58,63,66,71,79,87,94,108,118,128,138,138,135,132,128,124,125,131,134,136,133,126,112,94,80,75,71,66,63,61,60,62,63,62,61,60,58,60,64,68,73,78,79,78,74,70,77,86,88,85,72,70,73,72,71,71,71,74,83,88,87,82,70,61,61,59,56,55,56,61,71,77,79,80,77,72,68,64,62,60,59,59,59,55,52,57,65,71,81,96,112,126,137,145,150,152,152,150,145,134,125,125,134,140,140,135,126,112,113,121,128,133,134,132,128,123,116,106,96,80,63,52,44,32,22,23,30,32,28,24,22,14,8,2,-1,-1,-1,-1,-1,0,3,6,6,6,6,5,3,1,1,-1,0,0,-1,0,3,2,0,-1,1,1,8,23,31,36,42,46,51,55,59,62,65,63,60,56,51,47,44,44,50,56,59,60,61,60,57,54,52,50,45,40,37,40,46,54,64,80,92,101,106,108,109,110,110,113,116,118,120,119,117,113,108,101,89,81,78,78,77,76,75,74,75,75,76,78,83,86,87,86,83,83,82,86,91,102,116,132,144,152,154,149,140,124,106,92,83,81,84,86,86,90,95,107,120,128,131,132,129,124,116,108,103,100,98,95,91,92,93,95,99,104,106,107,108,109,107,105,105,105,109,118,126,130,131,132,129,122,117,116,115,115,115,114,112,106,99,93,86,80,75,76,81,87,90,94,98,101,99,96,88,82,81,84,86,89,92,96,103,108,109,108,106,101,100,105,114,123,132,140,146,150,153,158,162,165,166,168,169,171,173,177,180,182,182,177,171,165,158,152,145,133,132,140,148,154,155,151,144,135,128,123,125,134,139,142,146,155,165,172,177,183,185,186,183,179,173,166,157,147,146,146,148,148,146,140,128,114,101,88,77,71,70,70,70,73,73,72,70,62,57,55,51,41,36,31,29,28,28,27,27,25,22,17,12,7,5,3,3,3,3,3,3,2,1,1,2,1,1,1,1,3,4,5,4,6,6,8,8,9,11,16,22,33,43,49,52,51,49,40,28,26,32,41,48,53,54,53,53,57,67,73,80,89,99,111,124,137,147,157,165,172,177,178,180,179,181,186,191,195,196,195,193,190,185,183,186,190,191,190,185,177,165,148,132,123,123,130,140,150,159,165,167,168,165,159,150,142,132,128,124,123,131,140,146,148,147,144,138,133,136,143,153,165,177,184,188,192,193,194,193,188,185,182,180,178,178,181,186,190,191,193,194,193,193,193,193,194,194,195,194,193,190,186,179,172,170,168,168,170,172,170,164,157,148,137,125,114,110,111,113,114,113,109,104,101,107,122,137,147,153,152,147,139,130,123,121,121,120,117,115,113,110,103,93,80,70,73,78,82,85,88,92,95,101,109,117,122,126,129,134,141,147,149,147,143,136,127,113,101,101,106,115,121,122,120,115,107,97,90,86,86,87,87,89,91,92,93,102,112,122,133,140,149,154,159,163,167,170,175,178,179,177,173,166,158,151,146,142,138,133,132,134,130,130,134,138,141,142,142,142,142,145,147,149,149,144,131,115,105,101,99,101,102,104,107,108,107,105,99,91,86,86,90,95,98,102,107,110,113,115,115,112,109,106,103,104,109,119,129,134,140,144,147,151,156,161,164,164,160,152,141,126,116,112,109,107,106,106,107,109,110,112,115,119,120,117,111,102,90,79,72,71,75,80,83,86,91,98,103,110,115,119,123,125,126,123,113,106,98,92,86,81,75,73,80,88,95,101,105,110,114,117,119,119,118,113,107,101,97,93,89,85,79,75,70,70,70,67,56,40,30,22,19,16,10,6
35,36,36,39,40,42,38,33,31,30,28,28,26,27,29,25,22,24,24,25,28,33,32,27,27,30,31,31,32,33,32,31,31,31,32,32,31,32,34,34,35,35,34,37,45,46,42,41,40,38,37,33,31,29,28,25,24,26,26,28,32,32,34,34,36,40,40,41,42,43,44,39,34,30,27,28,28,29,30,32,33,33,33,33,35,38,42,45,45,46,43,43,41,39,39,37,38,36,34,32,30,31,33,31,30,32,33,33,33,33,37,42,46,49,48,49,51,54,56,60,61,62,63,63,59,56,49,40,37,37,38,37,34,31,29,29,29,32,34,37,45,50,54,65,75,85,93,104,113,115,115,115,111,107,104,100,96,90,85,84,83,80,77,75,76,80,81,82,82,83,83,87,101,116,126,133,134,125,117,110,103,95,97,103,103,99,93,89,84,80,77,76,80,93,105,111,111,108,102,95,87,80,74,70,69,66,66,73,83,92,101,107,110,111,111,105,95,84,80,77,76,76,74,73,72,71,69,66,62,58,57,57,58,60,59,59,59,60,58,54,52,50,47,45,44,40,37,36,36,36,35,35,35,35,35,35,35,38,41,43,44,42,43,47,50,55,61,66,70,69,68,66,65,68,73,75,79,84,88,89,88,86,80,69,66,69,72,78,79,78,76,71,74,80,86,92,94,91,86,81,84,88,86,85,84,81,78,77,75,73,85,101,110,122,134,139,138,134,123,112,96,81,75,70,65,63,70,80,92,104,114,119,121,121,116,110,105,100,99,100,98,93,87,79,74,70,70,73,79,87,89,88,86,84,80,75,70,66,63,62,62,63,68,73,76,83,93,105,114,119,118,114,106,98,84,67,61,62,62,63,62,60,58,56,56,58,61,66,73,83,92,97,99,98,92,85,77,69,66,67,69,70,69,67,65,62,60,62,65,69,75,80,88,100,114,128,139,146,148,145,140,137,137,137,136,132,122,109,95,82,76,69,65,63,62,62,61,63,63,64,64,64,62,62,63,65,70,75,80,79,76,73,79,88,90,87,77,78,82,83,82,82,82,85,92,93,89,86,76,66,64,62,59,57,56,57,64,75,81,82,81,78,74,69,68,65,62,63,61,56,55,55,56,64,74,82,93,105,118,130,137,144,145,146,143,137,134,137,141,142,142,137,130,123,120,121,124,122,117,110,102,96,93,87,77,66,56,46,37,29,19,11,12,14,12,7,3,0,1,1,0,-1,-1,0,0,1,0,2,1,-1,0,1,1,0,-2,-2,-1,0,0,1,2,1,0,-2,-2,-2,0,11,27,35,40,47,53,59,64,67,68,68,65,62,57,53,49,46,47,54,60,63,64,63,62,59,55,52,48,43,39,42,47,56,63,69,82,94,101,105,108,111,109,108,108,104,103,101,99,95,91,86,83,81,81,82,82,81,80,78,79,80,80,80,86,90,91,90,88,86,83,83,87,94,102,117,131,138,140,136,127,112,96,88,85,84,86,89,91,95,97,105,116,126,130,128,123,116,107,101,98,97,96,95,95,97,99,100,100,103,109,113,115,116,114,113,113,112,113,120,130,136,137,137,136,130,125,123,121,118,115,112,106,100,97,95,88,83,79,76,79,85,93,99,104,107,108,103,95,87,84,86,92,99,104,108,113,117,119,118,116,113,109,105,105,111,120,130,139,146,150,154,159,164,168,171,174,176,179,182,184,186,185,182,177,169,162,153,143,134,139,147,156,161,162,159,152,144,138,133,131,139,146,150,151,152,156,166,175,183,186,184,180,173,159,140,123,113,112,115,118,122,126,126,120,109,94,82,69,61,56,54,52,49,49,50,50,51,49,47,43,35,31,26,23,21,21,20,23,23,22,18,14,10,7,6,5,3,4,4,5,4,4,3,3,2,2,2,3,5,4,5,5,6,7,8,9,9,10,14,19,28,40,49,53,56,54,47,35,28,28,36,44,53,57,57,55,55,57,58,60,67,79,94,110,124,137,150,160,170,178,182,186,186,187,190,195,199,201,202,201,199,196,196,198,202,201,197,191,182,171,157,142,131,128,129,137,149,160,168,172,173,172,167,159,150,142,139,134,129,136,147,154,157,156,153,146,141,144,150,157,165,174,182,189,194,198,200,200,197,196,194,192,190,190,192,194,197,198,199,201,201,201,201,200,199,197,197,195,192,184,177,170,166,162,158,153,148,150,153,154,152,145,135,123,115,112,112,111,109,107,105,104,104,110,123,139,150,155,155,151,146,139,136,137,136,134,131,128,122,116,105,92,79,72,74,80,86,91,94,98,103,109,118,124,130,134,138,142,148,152,156,155,149,140,127,112,107,112,120,127,131,132,129,124,116,108,102,100,98,96,97,103,104,98,93,97,105,114,123,135,144,152,158,164,170,174,179,181,182,177,169,160,153,147,143,140,139,138,138,141,140,140,144,148,151,152,152,150,149,151,153,151,145,127,110,105,106,107,107,106,103,100,98,96,95,95,93,91,90,91,93,100,108,112,116,121,124,125,125,121,116,111,105,103,105,107,111,114,118,121,122,128,135,143,151,155,154,149,136,124,115,113,113,113,114,114,115,118,120,121,124,125,123,118,109,100,89,80,73,75,78,83,89,93,99,105,110,116,122,127,129,129,126,121,110,98,89,84,80,79,79,80,87,94,102,109,114,117,121,123,122,119,114,109,100,93,88,86,85,82,79,77,75,73,69,57,38,28,22,16,13,10,7,6
