179,172,165,162,161,160,156,150,150,150,145,145,146,146,143,139,135,136,141,145,154,164,175,187,189,192,193,192,188,181,176,169,165,157,151,148,144,142,139,134,132,128,125,122,120,117,114,111,109,105,103,100,98,96,93,89,87,85,82,81,79,77,76,76,77,75,75,73,73,73,73,74,79,84,82,82,88,91,95,96,98,100,103,105,105,104,105,108,115,119,118,117,117,117,116,116,118,122,122,122,126,130,137,142,147,151,153,160,169,176,180,182,186,188,188,191,194,198,203,208,210,210,210,211,206,198,193,191,190,189,193,194,191,190,191,194,201,205,207,211,217,218,218,217,214,208,205,205,206,209,213,217,219,221,220,219,216,213,212,209,205,198,194,193,196,201,208,216,220,223,229,232,234,237,236,231,224,211,197,187,182,177,170,163,160,156,155,155,156,157,160,165,169,171,164,156,155,154,149,145,140,135,134,133,133,131,129,128,128,127,126,126,126,126,125,123,123,116,110,116,121,127,132,129,125,125,127,130,134,135,129,118,111,104,97,91,86,86,88,87,80,75,78,78,75,72,70,65,64,62,59,60,59,58,56,56,54,54,52,51,51,50,48,48,49,48,47,46,46,44,46,46,47,47,47,47,45,41,38,45,55,61,67,69,72,74,74,78,79,73,70,71,71,70,69,69,71,71,71,68,66,67,66,67,69,69,70,68,62,58,58,57,56,55,54,56,57,56,54,53,51,50,51,53,55,58,61,65,68,72,75,77,72,65,60,57,54,52,52,49,47,46,46,45,44,44,44,45,46,47,48,48,48,50,51,52,51,52,53,55,58,59,61,64,68,73,73,73,75,77,77,75,73,72,76,80,80,81,81,78,74,73,71,68,66,64,65,69,74,78,83,89,94,100,106,118,127,136,137,136,136,136,132,122,116,112,107,102,97,93,89,85,84,90,99,101,95,89,82,77,73,66,59,60,60,60,63,68,76,85,92,96,94,89,87,85,88,93,98,99,102,101,99,102,105,105,103,99,96,91,89,88,87,86,87,85,82,77,73,70,69,66,63,61,60,59,59,63,69,75,80,81,80,78,76,77,77,77,77,76,76,73,72,73,76,78,79,79,76,72,69,70,71,70,66,62,60,58,59,61,61,62,63,64,65,63,62,61,59,57,55,54,53,53,54,54,55,55,57,56,59,61,61,60,60,60,60,58,57,57,56,55,56,58,57,57,58,59,59,59,60,59,59,60,62,63,62,63,63,64,64,65,67,67,67,68,68,68,69,68,68,69,69,72,73,74,75,78,81,86,91,96,97,98,97,97,97,97,95,92,92,92,90,90,90,88,87,87,87,86,85,84,85,83,82,83,84,83,81,82,82,82,83,81,80,80,80,79,78,78,78,78,78,78,78,79,78,78,79,80,79,79,80,80,81,79,77,80,87,91,89,82,79,77,76,76,75,75,78,77,76,75,75,76,76,75,76,76,77,77,78,79,78,78,79,80,79,79,80,80,81,84,82,81,82,82,82,82,82,83,86,90,93,92,89,87,86,85,86,90,90,88,86,85,83,82,82,82,81,81,81,81,81,80,79,79,81,82,81,80,79,79,78,77,77,78,78,79,79,79,79,81,81,79,80,78,77,77,76,76,77,81,83,85,82,81,82,83,83,84,84,81,79,78,75,73,73,73,74,74,74,74,74,76,77,77,79,80,80,81,81,80,81,81,81,82,82,82,80,80,81,81,79,77,76,78,83,85,85,87,88,91,95,98,99,98,97,95,95,95,93,92,92,94,96,103,103,98,97,98,95,90,89,88,90,93,94,93,93,90,88,85,83,83,81,79,78,76,76,75,77,78,80,82,83,83,83,81,78,76,76,78,79,82,83,83,82,83,84,84,84,85,86,89,90,90,92,92,93,95,96,98,100,101,102,104,105,106,107,109,110,112,114,116,118,118,120,124,127,130,134,135,133,130,128,128,127,128,128,133,151,172,189,203,212,219,222,224,224,225,226,226,226,227,228,229,230,228,223,217,215,216,218,222,225,225,225,223,221,220,219,215,211,209,207,202,197,192,187,183,182,181,181,181,180,180,180,181,179,177,174,170,168,166,166,164,162,159,155,151,147,141,135,129,121,110,99,85,67,50,43,42,39,39,38,37,36,37,38,39,39,38,36,36,37,38,38,38,39,40,41,43,47,54,62,68,68,65,68,71,76,79,83,85,88,91,94,97,101,106,112,119,124,127,130,131,126,122,118,114,113,112,109,106,105,105,103,101,100,94,90,90,93,99,103,105,107,108,107,107,106,103,100,98,94,92,89,87,84,84,85,85,85,85,84,84,83,81,79,77,74,71,67,63,60,59,60,62,66,69,70,72,72,71,72,73,72,70,67,71,76,78,78,79,80,81,83,87,94,101,106,112,115,117,118,119,118,117,114,112,109,106,104,101,99,96,96,95,95,92,89,88,87,86,85,85,84,83,81,80,80,78,76,73,71,69,67,64,60,58,57,57,57,58,59,62,64,67,70,72,75,77,76,76,76,78,81,86,92,97,103,107,112,114,114,113,111,109,106,104,103,101,100,99,96,93,89,85,84,87,90,88,85,84,84,86,87,89,92,93,94,94,94,94,92,92,91,92,95,96,92,90,90,91,89,85,82,81,81,82,84,87,90,88,84,82,79,75,70,65,59,53,48,44,41,41,42,44,48,49,50,53,58,61,62,63,63,62,61,60,59
171,164,159,155,150,143,137,134,133,132,136,144,147,147,146,142,135,131,131,137,147,156,167,180,187,190,189,186,182,177,172,165,160,156,152,147,144,139,136,132,129,126,125,124,121,117,113,111,109,106,102,99,97,95,92,90,87,85,83,81,80,80,79,80,81,80,79,76,75,76,73,73,78,83,80,83,87,91,92,94,94,94,95,95,98,102,107,113,116,118,116,113,112,113,111,112,114,116,116,120,125,133,143,151,158,164,170,172,171,172,175,182,188,190,190,193,197,200,204,207,208,210,208,203,194,186,179,178,175,170,172,172,172,174,177,181,183,183,188,194,201,205,205,203,198,188,185,186,189,188,193,200,204,211,217,219,219,217,217,217,213,207,205,202,201,205,210,211,217,221,226,230,233,236,235,233,229,221,210,199,191,186,180,171,167,168,170,171,173,175,178,180,181,178,175,170,165,157,151,145,141,137,134,133,135,133,133,131,130,130,129,129,127,128,126,123,121,114,104,103,111,121,125,125,121,120,122,124,122,116,112,106,97,91,88,86,85,82,81,80,75,75,78,78,75,72,70,68,66,65,64,66,66,67,67,66,65,65,63,63,61,59,58,55,56,55,54,54,54,54,59,63,61,61,63,62,55,45,39,46,54,62,68,72,74,77,77,78,77,76,75,75,72,69,68,70,71,73,70,69,66,65,64,66,67,68,67,65,59,54,55,56,57,57,57,57,56,55,53,51,49,50,51,52,55,57,63,70,74,76,78,80,76,71,65,60,57,53,52,51,50,48,45,43,42,41,43,44,44,45,46,45,46,47,47,49,50,50,51,52,52,54,57,63,67,69,67,68,71,73,75,77,74,70,72,70,69,72,78,74,68,67,66,65,63,63,66,69,72,75,78,83,87,90,96,105,115,124,132,134,133,134,135,132,127,124,120,112,107,103,98,93,89,92,100,103,100,95,89,82,75,68,60,57,57,58,61,67,74,82,88,91,91,88,85,82,84,89,94,95,95,96,96,100,104,105,104,101,97,93,91,91,90,91,90,88,86,85,84,82,79,74,70,64,61,60,58,65,70,73,76,79,78,76,75,75,76,76,76,73,72,71,70,71,75,79,79,76,74,70,67,66,65,63,61,59,58,58,57,59,60,61,62,60,60,60,62,61,59,57,55,54,53,52,53,55,55,56,56,56,58,59,58,58,57,59,59,56,56,57,55,55,56,56,56,57,58,59,59,60,61,61,60,61,61,62,60,61,63,64,64,64,65,66,67,68,67,67,68,67,67,66,69,70,71,72,75,79,82,88,94,97,97,98,97,97,98,98,94,92,93,92,92,91,91,90,90,89,88,86,85,85,86,85,85,85,87,88,86,84,83,82,81,80,80,79,79,78,78,77,79,78,77,77,79,79,77,77,78,79,80,79,79,80,80,79,77,79,82,82,81,80,78,77,76,76,74,76,77,76,75,75,74,75,75,74,75,74,74,75,75,75,76,77,77,76,76,77,78,78,79,81,83,82,81,81,81,82,83,83,84,90,93,93,92,88,86,84,84,88,89,87,85,85,85,84,84,83,80,79,81,80,80,79,79,79,79,80,79,79,78,78,78,77,78,77,76,76,76,77,77,78,78,78,78,78,77,77,76,76,77,81,84,84,82,81,80,82,83,83,81,80,78,76,75,73,74,73,73,73,74,77,77,78,79,79,79,80,79,77,77,78,79,79,79,79,80,80,80,79,78,77,76,77,79,83,87,87,87,89,92,96,100,101,100,99,97,96,96,96,93,92,91,90,91,91,95,95,92,95,95,91,86,86,88,89,92,93,92,92,90,87,84,83,81,79,77,77,75,74,75,76,77,78,78,78,78,76,75,75,76,77,78,79,81,82,83,82,82,84,84,85,86,87,89,90,92,92,94,97,98,101,103,105,106,108,109,110,111,113,115,117,118,118,117,116,114,117,118,119,124,125,130,130,126,124,124,124,124,132,150,170,185,196,205,212,215,218,220,220,220,222,222,223,223,224,223,219,209,189,174,176,187,198,209,220,224,225,224,222,219,214,210,207,199,186,172,161,155,150,148,151,158,165,169,173,177,178,177,174,173,172,169,166,165,163,160,156,155,152,150,147,141,132,124,112,103,98,85,71,52,41,37,36,37,37,37,37,38,38,38,39,39,38,37,37,37,38,39,40,43,46,50,51,53,55,58,63,70,76,84,90,92,94,97,100,103,105,109,113,117,121,126,128,130,130,127,124,120,116,113,114,113,112,110,110,110,108,106,103,101,99,98,97,101,105,107,108,109,108,107,105,104,102,100,97,94,91,88,88,88,89,89,87,85,85,83,81,80,77,74,69,63,58,57,60,63,68,72,75,76,76,77,77,78,78,77,75,73,72,75,77,81,82,84,85,87,90,95,101,105,109,111,113,114,113,110,107,104,99,96,93,91,90,89,87,85,88,90,89,88,88,87,86,85,86,85,84,81,79,79,78,75,72,69,67,63,59,57,56,57,58,58,58,60,63,66,70,74,78,80,82,83,83,83,84,84,84,89,93,99,106,111,113,114,114,113,111,109,106,104,102,99,96,93,89,87,85,86,90,91,91,91,90,91,92,93,96,97,98,99,98,97,96,95,96,95,94,94,95,93,91,89,87,85,83,82,81,81,84,87,90,92,88,83,78,75,70,63,56,50,46,44,43,42,44,48,50,54,56,57,57,59,64,66,67,67,66,64,63,63
169,163,159,152,145,138,132,128,126,126,130,138,142,142,142,143,137,127,124,128,137,145,149,160,174,183,183,183,180,175,167,160,156,151,148,144,141,136,133,131,128,126,124,122,120,116,112,109,106,104,101,101,98,95,92,89,88,86,84,82,81,82,83,83,84,81,79,80,80,76,74,73,74,77,83,86,86,86,86,87,87,88,91,94,100,106,110,113,114,113,112,108,107,109,107,105,106,110,115,120,127,137,151,161,165,170,175,177,174,173,174,178,183,186,189,194,196,198,202,204,206,208,205,192,180,171,163,157,157,154,153,151,153,158,161,168,169,170,181,186,192,196,195,191,185,174,166,166,172,177,182,187,197,202,210,217,217,216,216,217,216,213,215,215,216,216,217,220,223,227,230,233,234,237,239,239,236,232,228,218,205,195,189,182,182,188,191,195,194,190,188,185,183,180,177,173,167,158,150,146,144,141,141,139,139,137,135,133,133,132,130,129,129,129,124,119,115,111,102,97,104,118,122,120,117,114,116,120,120,116,112,108,102,98,96,95,91,89,86,77,71,70,75,76,75,74,76,81,81,79,79,79,80,79,81,83,83,84,82,82,79,73,69,67,66,66,67,68,69,70,72,74,73,72,73,72,65,53,43,41,45,53,66,71,70,73,74,74,71,69,69,67,65,67,68,69,69,70,69,68,67,64,63,63,65,66,65,62,57,55,54,55,56,56,55,54,53,52,50,50,50,51,53,56,57,57,61,70,74,77,83,86,84,82,76,70,61,57,55,54,51,49,46,44,42,41,41,42,43,44,43,43,44,45,45,47,49,49,49,50,50,52,54,57,61,62,61,63,67,67,68,71,69,66,65,64,64,65,67,66,64,65,65,63,62,63,65,67,69,71,74,78,79,83,87,91,99,111,122,129,131,131,133,135,136,138,137,128,120,114,108,101,95,94,97,100,97,92,90,84,75,67,61,56,55,55,59,64,70,77,82,83,85,85,84,82,81,83,86,89,88,89,94,100,102,103,103,100,97,96,93,90,90,91,91,91,89,86,85,84,82,78,75,70,65,60,57,59,66,71,73,74,73,74,76,76,76,76,74,71,69,69,72,73,75,78,77,74,71,67,64,63,64,61,60,59,59,59,59,60,59,60,59,58,57,56,56,56,55,54,54,53,52,52,52,53,53,54,55,57,59,57,56,57,56,57,56,55,55,56,54,56,58,57,59,61,61,59,59,59,61,61,61,60,59,62,62,61,61,63,64,63,63,64,65,65,66,66,66,68,68,67,67,69,71,72,75,78,82,88,94,96,99,101,101,99,100,100,95,95,98,97,93,90,88,90,91,88,88,86,86,87,89,87,87,89,89,88,87,88,88,87,86,84,83,82,80,79,78,79,80,78,77,78,78,77,76,77,77,78,78,78,78,78,78,79,80,82,81,79,80,78,77,77,78,77,76,79,80,79,77,75,74,74,74,74,73,73,74,75,75,75,76,76,77,76,76,77,77,76,78,81,82,84,84,82,81,81,81,81,83,90,96,96,95,92,87,84,86,88,87,86,85,87,85,83,82,82,81,80,79,79,79,82,82,81,79,77,77,77,77,78,77,78,77,76,75,77,81,81,79,77,77,77,77,76,76,76,75,75,75,78,81,82,82,81,80,80,81,81,80,77,75,74,73,72,73,73,73,73,73,75,76,78,78,77,77,77,77,77,75,78,79,79,79,78,77,77,77,76,75,73,75,78,83,88,89,89,89,91,95,100,101,102,103,101,100,99,98,96,94,91,88,87,87,89,87,85,86,89,90,90,87,88,89,88,87,90,92,92,91,89,86,84,82,80,78,76,74,74,74,74,74,76,76,76,76,75,76,79,81,82,80,80,82,81,80,80,82,84,85,85,86,87,90,91,91,92,96,99,102,104,107,111,113,115,117,117,115,115,117,118,119,118,116,113,112,111,112,114,118,123,126,127,124,121,119,118,123,136,151,167,177,188,196,199,201,203,207,210,209,207,209,211,211,214,214,212,200,173,145,137,145,160,180,200,212,216,217,216,214,210,208,200,188,166,143,127,119,112,110,114,123,134,147,158,165,170,172,174,173,170,166,163,160,155,151,146,146,141,137,135,130,124,118,105,93,82,71,60,49,39,38,37,37,36,36,38,38,38,39,41,40,39,39,39,38,37,37,39,41,46,49,50,52,58,64,70,78,87,91,95,99,103,105,108,111,113,116,119,122,125,126,127,128,126,125,121,119,117,114,110,109,109,108,109,111,112,111,111,110,108,108,106,103,104,106,107,108,109,109,109,109,106,103,100,97,95,93,90,88,88,87,86,84,83,82,80,79,75,72,68,64,61,61,64,68,72,76,79,82,82,83,83,84,84,83,80,78,76,76,78,82,86,88,90,92,96,99,103,105,106,109,108,105,101,96,94,93,92,90,88,87,86,84,83,81,82,82,82,84,84,85,85,85,85,83,82,82,79,75,74,72,70,67,63,60,57,56,57,57,57,58,59,60,63,65,69,74,79,82,84,86,88,90,92,92,92,92,95,99,107,111,113,114,114,114,112,108,103,100,98,95,92,90,88,89,91,92,94,95,96,96,97,97,96,97,99,100,100,100,99,100,99,98,96,96,95,94,93,93,91,89,86,85,83,83,82,82,84,86,87,86,82,76,71,64,55,48,45,44,44,44,46,47,51,54,57,60,62,63,62,62,64,67,68,67,66,65,65,66
176,165,157,149,142,136,132,127,123,122,121,127,132,131,136,140,139,130,123,122,127,138,142,146,157,166,173,175,170,163,155,149,144,142,139,137,135,132,130,127,125,123,122,119,116,113,111,108,105,104,102,100,96,94,92,90,89,87,85,85,84,84,83,84,85,83,80,79,80,80,76,75,73,73,78,87,86,81,81,81,86,92,95,99,103,106,109,108,110,112,111,105,102,101,100,99,103,108,110,113,119,125,136,143,148,154,159,165,170,174,175,176,178,181,186,191,193,197,201,201,202,203,196,181,169,164,153,150,147,142,139,141,142,141,148,153,154,156,166,178,189,194,191,178,164,155,150,149,150,155,162,172,185,192,194,199,203,205,208,209,210,211,211,212,216,219,220,221,222,226,228,226,227,234,235,234,235,236,236,229,218,210,205,202,205,209,212,212,206,198,193,187,182,180,177,173,163,156,151,150,148,145,145,145,142,140,138,135,134,130,125,117,114,112,107,104,102,100,95,89,103,119,121,122,117,104,103,116,121,121,120,117,114,110,107,103,96,91,87,80,75,71,71,73,77,83,95,103,103,100,98,99,97,96,96,96,97,99,100,97,91,84,81,79,78,78,79,78,78,78,77,76,75,74,74,74,70,69,58,43,43,51,68,71,73,75,74,73,71,70,69,67,64,64,63,64,67,69,68,65,64,62,61,60,63,64,62,57,53,53,54,55,55,56,54,52,51,50,49,49,49,51,55,59,61,62,64,73,79,82,87,89,84,82,82,78,72,63,56,53,50,47,46,45,45,42,40,40,42,43,44,45,45,44,45,46,46,48,49,49,49,50,51,53,57,57,57,59,60,60,60,61,60,61,59,57,58,57,58,59,59,59,58,60,61,63,64,66,69,72,73,74,75,76,79,84,92,104,117,126,127,128,131,135,137,138,137,134,129,123,115,108,101,94,93,94,91,86,84,80,73,65,60,55,53,56,58,62,67,70,75,79,84,86,84,81,80,79,79,81,82,85,91,97,101,103,103,101,98,96,95,93,92,93,93,91,89,88,86,84,83,80,76,72,68,64,60,59,65,69,71,71,71,73,75,74,73,72,69,66,67,69,71,74,76,77,75,71,67,64,62,61,61,60,60,59,58,59,58,59,59,61,62,60,58,56,54,54,53,52,52,52,52,52,52,52,52,53,56,58,57,56,56,56,55,55,56,57,57,57,57,59,60,61,63,64,63,61,59,57,58,58,58,59,59,61,62,61,61,61,61,61,62,64,65,64,65,67,68,68,68,67,67,68,68,70,72,75,79,83,90,98,102,102,102,100,99,100,102,104,105,103,100,95,92,91,91,90,90,90,90,91,90,89,87,88,88,87,88,88,88,89,89,88,86,85,84,83,81,80,80,79,78,77,77,76,78,79,78,77,77,77,76,77,77,79,83,87,83,81,80,77,75,75,76,78,81,84,85,85,82,79,77,75,74,74,74,73,72,73,74,74,74,75,77,76,76,77,75,77,78,79,80,81,83,83,82,82,81,82,85,87,88,88,88,86,84,88,92,92,87,84,84,85,85,83,83,83,82,81,80,80,82,87,87,83,81,79,78,79,78,77,76,76,76,78,79,84,87,87,84,81,79,78,78,77,76,76,75,74,73,75,77,79,80,79,79,80,80,78,77,76,74,73,72,72,73,73,74,74,73,74,74,73,74,74,76,78,80,79,79,81,81,83,83,82,80,78,76,73,73,73,78,84,90,92,91,91,91,92,98,102,103,103,103,102,101,100,99,97,95,93,89,86,87,86,84,83,83,83,85,86,86,88,89,87,85,87,90,90,90,89,88,86,83,81,81,78,75,73,74,74,74,75,76,76,78,79,80,83,83,83,82,84,86,84,83,81,83,85,85,86,86,89,89,90,92,94,97,102,105,107,110,114,120,124,123,121,116,114,111,111,113,114,113,112,109,107,107,108,113,116,117,117,116,113,112,116,129,143,156,167,173,182,188,186,186,189,192,192,189,188,186,185,190,198,201,201,192,167,138,117,118,133,143,159,182,194,195,195,196,199,199,194,181,161,136,112,96,87,82,83,93,102,113,129,143,151,155,160,162,161,157,152,151,144,136,131,122,115,110,111,109,104,95,82,73,64,55,47,42,39,38,37,38,37,38,40,40,40,40,41,41,41,41,40,39,38,37,38,39,43,46,50,54,60,66,73,81,88,95,100,103,108,110,113,116,119,121,123,125,125,124,123,121,118,115,112,112,111,110,109,110,110,110,109,110,112,111,111,112,111,113,113,111,109,108,109,110,110,111,112,110,107,105,102,99,95,91,89,88,86,84,82,81,80,79,77,74,73,70,67,62,60,61,65,70,74,78,82,85,86,87,88,88,88,87,84,82,81,80,79,80,83,86,90,93,97,99,104,105,106,106,104,101,96,92,90,88,88,88,87,86,84,82,81,79,78,77,76,78,78,79,80,81,80,79,77,77,76,74,70,68,66,63,60,57,56,56,57,59,60,59,60,62,62,63,67,71,76,80,85,88,90,93,95,97,99,100,102,104,109,111,114,115,114,113,110,105,100,97,93,91,91,91,92,94,96,98,99,99,101,101,102,103,102,101,102,102,103,103,102,101,99,98,96,95,95,93,91,89,88,86,84,82,81,82,82,82,83,83,81,75,65,57,50,46,44,45,44,45,47,49,51,53,57,60,64,65,67,68,67,66,67,69,69,68,69,69,69,69
179,169,154,145,140,134,131,128,125,123,120,118,117,117,124,130,136,133,121,119,123,129,136,139,143,145,145,145,144,142,139,138,137,136,133,129,128,126,124,122,119,119,118,115,111,110,109,106,105,104,102,98,95,93,92,90,89,89,87,87,88,88,87,86,86,84,83,81,80,80,81,78,73,73,73,75,81,83,85,87,89,93,96,98,101,103,105,107,106,107,106,102,98,97,98,102,108,113,114,114,115,117,126,134,137,141,145,149,157,164,169,174,176,176,180,184,191,197,198,199,199,195,184,172,165,161,149,142,138,133,129,133,135,134,132,133,134,136,143,151,160,164,162,155,149,142,138,137,137,140,149,161,171,177,184,191,193,193,192,194,193,192,194,193,195,201,206,206,205,209,208,209,209,207,204,201,203,212,221,222,214,209,210,212,215,220,222,219,209,195,183,176,173,173,171,171,165,160,159,159,159,156,152,149,148,145,138,128,117,110,101,97,94,93,91,89,89,87,87,88,99,115,122,119,113,99,95,106,118,122,124,124,122,117,113,107,103,102,95,87,78,73,69,70,75,82,95,107,107,106,105,104,103,104,104,102,99,99,98,99,96,91,87,84,80,77,77,77,77,75,75,74,73,73,72,69,64,59,51,39,39,50,66,71,72,73,74,73,71,69,68,65,64,62,61,61,63,65,65,64,63,61,60,58,57,57,53,52,51,52,53,52,51,52,50,50,48,49,48,47,49,52,56,60,63,67,72,81,85,87,88,86,81,80,78,74,70,65,56,52,49,47,45,45,42,41,40,41,42,43,44,44,44,46,46,44,44,45,48,46,46,48,48,51,53,53,53,55,54,54,55,56,55,55,55,54,55,55,56,57,56,56,56,55,56,58,60,62,65,69,70,71,71,72,76,81,86,95,106,116,123,125,128,132,134,136,138,138,138,133,123,113,106,100,96,96,91,85,80,74,68,63,59,55,52,55,60,62,65,68,74,80,85,86,84,80,78,77,75,76,79,82,86,90,95,101,102,101,98,96,95,93,92,94,92,92,91,88,85,84,81,79,76,71,67,64,59,56,61,66,67,69,72,73,73,71,69,68,68,67,68,71,72,74,77,76,73,70,68,66,66,65,63,61,60,58,58,58,56,56,57,58,58,58,57,57,54,53,52,51,51,51,52,52,52,54,53,54,55,54,54,54,55,55,55,56,59,61,62,62,61,61,62,65,66,65,63,60,59,58,57,56,57,58,58,59,59,59,59,59,61,62,63,63,65,65,66,68,69,69,70,69,70,69,69,70,72,73,75,81,89,96,101,102,101,100,100,101,102,101,104,106,105,105,100,96,94,93,93,93,93,94,92,90,89,90,89,87,86,85,88,88,88,88,87,86,87,86,85,84,82,79,79,77,76,76,76,77,76,76,76,76,76,76,79,83,87,88,82,79,78,76,75,74,74,78,81,85,86,88,87,81,78,75,73,74,73,74,74,72,73,74,73,74,75,75,76,76,75,76,77,77,76,77,80,80,79,80,82,86,88,85,80,79,79,78,83,89,92,93,90,84,82,84,85,86,85,85,84,85,85,83,84,87,89,87,85,83,84,84,81,78,76,76,78,80,81,85,89,90,86,84,81,79,78,78,79,79,77,76,74,74,74,76,78,79,78,80,79,77,76,74,72,72,73,72,72,73,74,75,73,74,76,78,78,79,80,81,82,83,84,84,85,85,84,82,81,78,76,73,74,75,81,87,90,92,93,94,96,97,100,102,102,101,103,103,102,101,99,98,95,94,93,91,88,87,84,82,81,80,79,80,80,81,80,80,82,83,84,84,84,85,86,86,84,82,83,81,77,74,74,73,73,76,80,82,84,82,82,86,86,87,90,91,90,86,85,85,84,85,86,87,89,90,92,94,95,96,98,101,106,110,113,117,123,123,120,118,114,110,108,105,107,108,107,108,106,104,103,104,106,109,110,108,108,109,109,117,132,146,157,168,173,176,176,172,172,177,176,172,163,152,140,138,150,169,182,185,180,161,134,105,98,109,125,134,142,148,149,147,152,169,180,181,175,161,135,111,93,79,77,72,69,73,83,97,113,128,137,142,141,137,136,136,135,130,121,113,97,82,74,75,80,81,74,64,58,52,48,43,40,37,36,38,39,38,41,42,42,42,43,42,42,43,44,42,41,40,39,38,39,41,43,48,52,58,66,74,81,88,95,102,106,110,114,115,117,119,121,122,123,122,119,114,107,98,91,92,95,98,100,103,105,106,106,107,109,111,112,112,112,111,112,111,111,110,108,110,112,114,114,113,110,109,106,101,95,92,87,84,83,81,78,77,76,74,73,71,69,68,65,64,61,60,62,64,68,73,77,82,85,87,90,92,92,92,90,89,87,86,84,82,80,80,83,87,91,96,99,102,104,104,104,102,98,93,90,87,84,84,85,86,86,84,82,82,79,76,75,73,73,74,75,74,75,74,74,73,72,71,70,69,66,64,62,60,58,57,57,60,63,64,64,64,64,64,66,66,68,72,76,81,85,90,93,98,100,102,104,106,109,112,114,116,116,114,111,107,101,98,96,94,94,95,96,98,100,101,103,104,104,105,105,105,105,105,104,104,104,102,102,101,98,97,95,93,91,90,90,88,85,83,82,80,78,78,79,80,78,74,69,63,55,49,46,46,47,50,53,53,52,52,54,57,60,63,66,70,73,73,73,71,69,70,72,72,71,71,72,72,71
176,168,159,152,145,140,137,137,136,134,131,125,120,117,115,114,115,117,115,114,117,123,129,135,135,133,134,134,134,131,131,132,130,131,128,123,121,118,117,115,114,114,112,109,108,107,105,102,101,101,99,95,93,92,90,89,89,90,89,88,90,92,92,91,90,88,87,87,83,78,77,75,74,74,75,77,81,84,85,87,89,91,94,97,98,99,100,102,102,101,99,97,96,96,99,104,108,108,112,111,110,112,121,129,133,134,137,142,149,156,165,172,173,175,180,186,191,194,195,195,192,186,178,168,161,151,143,136,131,127,126,127,126,126,128,127,128,131,135,138,139,137,140,143,142,136,131,129,130,134,138,148,157,161,165,170,175,175,175,176,175,174,175,172,173,177,181,185,189,189,188,187,184,182,179,179,188,199,206,208,209,209,209,211,216,215,205,195,183,173,164,159,156,153,153,156,154,152,149,153,158,155,152,151,153,151,139,126,113,105,102,101,99,95,89,85,84,80,81,85,90,102,110,111,107,97,89,89,101,116,127,126,122,117,115,113,110,106,101,93,86,80,70,65,69,77,86,99,103,102,102,103,102,102,102,101,98,96,96,93,91,90,89,86,82,77,74,72,72,72,73,72,71,68,61,53,49,43,41,37,42,60,72,71,71,72,72,71,70,69,67,65,64,61,58,56,59,62,62,61,61,61,60,57,55,53,52,50,49,49,49,48,48,48,48,47,46,47,47,48,50,54,57,61,65,70,78,81,80,81,79,75,72,70,70,66,63,60,56,54,51,48,46,45,45,43,43,41,40,43,44,44,43,44,44,43,44,44,46,45,45,44,45,49,50,51,51,52,52,52,52,53,52,51,51,51,51,52,54,54,54,54,54,53,54,56,57,59,62,65,67,69,70,72,74,76,80,86,98,108,118,122,124,126,131,135,139,138,135,132,122,111,109,101,93,93,91,88,82,75,68,63,62,56,52,53,58,60,62,64,69,76,84,87,86,82,79,77,76,76,77,79,83,88,92,99,99,97,96,95,94,93,93,92,93,93,90,87,84,83,80,78,75,71,66,64,61,57,59,63,65,68,73,71,67,65,65,65,65,66,68,69,71,74,75,77,74,70,68,66,66,65,63,63,64,65,65,66,62,58,56,55,55,54,54,54,53,52,52,52,51,52,53,54,55,55,55,55,56,57,59,61,62,63,65,67,67,67,67,66,64,64,64,65,65,65,64,61,59,58,57,57,56,56,57,58,58,60,59,60,61,63,64,65,66,67,68,69,70,68,68,69,68,68,68,67,68,69,70,75,77,84,96,103,104,104,103,101,99,99,99,101,106,106,108,104,102,100,97,93,94,94,93,92,92,92,89,87,86,85,87,87,88,88,89,88,88,88,87,85,82,81,79,76,75,76,76,76,75,76,76,76,76,77,79,83,88,88,82,79,78,77,74,72,73,74,77,80,82,86,87,83,80,76,74,73,73,72,72,73,73,73,74,74,74,74,74,74,76,78,76,74,74,75,78,78,79,80,81,81,80,80,79,79,79,79,84,89,91,91,90,86,84,86,89,92,92,94,92,91,89,87,88,89,89,89,88,86,87,87,83,80,78,78,77,77,77,80,85,88,88,86,83,82,80,79,79,81,81,79,77,75,74,75,79,81,83,84,80,74,73,72,71,71,71,72,72,74,74,74,74,76,79,81,82,83,85,86,86,85,85,85,83,79,76,75,75,76,74,71,72,74,81,89,91,93,94,96,97,94,94,95,95,98,100,101,101,101,100,97,96,94,93,91,88,87,87,84,83,82,80,79,79,79,78,77,79,81,81,81,81,82,83,85,84,82,80,78,77,76,73,71,73,77,83,86,86,85,86,90,94,95,96,95,92,91,89,88,87,86,89,91,91,93,94,95,97,100,101,103,106,111,116,122,124,120,114,111,109,105,104,104,103,102,101,103,102,101,99,99,102,105,106,104,104,106,112,124,137,148,157,166,170,169,165,159,161,164,160,147,132,119,107,105,115,133,153,167,165,151,124,104,94,91,99,112,119,117,113,110,119,132,145,158,162,156,139,118,94,76,70,67,64,62,65,71,81,93,103,106,105,101,100,105,111,112,106,97,84,72,63,60,59,58,56,53,50,46,43,41,39,38,39,39,40,41,42,43,44,45,46,46,47,47,48,48,46,43,41,40,40,40,41,44,48,54,61,69,78,87,94,100,106,108,111,112,113,115,115,115,115,111,107,98,88,76,69,69,74,79,84,90,94,98,99,100,102,105,107,110,111,113,113,113,113,113,113,112,112,114,115,114,113,111,106,100,93,88,85,83,81,81,79,77,76,75,73,71,70,69,65,63,62,64,68,71,72,72,73,78,85,89,91,94,95,96,94,94,93,91,89,86,85,84,84,86,90,94,98,101,102,104,103,101,97,92,88,85,83,80,80,83,85,85,85,83,81,78,76,74,72,70,69,69,72,72,71,70,69,68,67,66,65,64,63,60,58,58,57,60,63,66,68,69,69,70,70,69,68,68,71,76,82,87,92,95,100,104,109,111,113,115,116,117,117,114,111,107,101,98,97,98,99,101,103,105,106,107,108,108,107,107,106,105,104,104,102,101,101,97,94,91,89,90,87,84,82,81,80,79,76,75,75,75,76,74,73,70,62,54,49,46,46,47,51,55,57,60,60,58,57,58,60,62,65,68,71,74,75,77,79,77,74,75,75,74,74,74,74,72,71
182,178,171,163,154,151,149,147,143,139,134,130,127,124,118,111,109,108,109,111,113,118,125,128,126,125,125,124,124,123,123,122,121,120,120,118,116,112,109,108,109,108,105,105,103,101,100,99,98,98,97,96,92,89,88,86,86,87,87,88,93,93,92,91,90,87,89,86,79,72,72,72,70,69,73,75,79,81,83,85,87,89,90,92,94,95,95,95,95,94,93,93,93,93,96,99,102,104,107,109,111,116,124,128,132,137,143,150,160,171,177,176,177,179,184,188,189,190,192,192,186,176,168,161,155,147,139,133,129,125,122,122,123,122,122,123,126,128,127,126,126,130,135,139,137,133,128,125,125,127,131,133,136,140,145,150,153,153,153,154,154,154,152,153,155,161,168,170,175,175,171,167,162,155,157,165,174,183,189,195,196,197,197,196,196,190,179,169,164,165,160,154,148,140,136,133,129,124,123,125,129,130,132,138,150,152,140,127,120,120,120,119,118,110,97,89,86,85,83,83,85,84,85,89,93,90,82,81,81,86,103,115,117,115,113,108,102,101,100,94,85,78,74,67,67,72,80,89,90,91,92,93,93,95,93,91,92,90,87,85,86,86,86,86,81,76,71,66,65,66,68,67,65,62,52,42,40,39,42,45,55,67,72,71,71,72,71,69,68,69,66,63,63,61,56,55,57,59,58,59,60,60,59,56,52,49,49,49,47,48,48,48,47,47,47,47,46,47,48,50,53,56,59,60,65,72,74,72,70,69,68,68,66,62,64,67,65,61,59,56,52,49,47,46,44,43,42,42,39,40,41,43,43,40,40,43,44,43,44,44,44,45,45,47,49,50,49,49,49,50,51,51,51,50,49,50,51,51,52,53,52,52,52,51,53,55,57,59,61,64,63,64,66,69,72,74,78,86,96,103,111,119,120,122,128,131,132,132,131,127,118,108,106,103,96,91,87,86,82,75,67,64,61,57,55,52,53,56,59,65,71,78,85,90,89,84,79,76,75,74,75,77,79,84,87,90,90,88,89,92,92,91,90,88,88,87,87,86,85,84,81,78,76,72,70,68,64,57,57,60,60,62,65,67,65,62,62,63,63,64,69,76,77,76,75,77,76,73,71,67,66,66,67,70,76,79,80,79,75,71,67,61,58,54,54,54,54,54,53,53,52,55,58,59,61,63,64,65,65,67,68,70,71,73,74,72,69,67,65,65,64,63,63,61,63,62,62,60,58,57,56,57,59,62,62,63,64,65,65,64,62,63,63,66,68,70,70,70,69,68,68,67,66,65,65,64,66,67,68,73,77,81,87,97,103,103,103,102,100,99,102,104,105,105,106,107,107,105,99,93,92,92,94,96,97,95,92,89,87,85,85,86,87,86,87,87,86,87,86,85,83,81,79,76,76,75,75,75,76,75,76,77,79,80,81,84,86,85,81,79,77,76,74,74,74,74,75,77,80,83,85,82,79,78,76,74,73,72,72,73,73,72,74,73,73,74,74,75,76,75,77,77,78,79,79,80,81,83,84,82,80,78,78,77,77,78,79,80,81,85,87,85,84,85,89,92,95,93,90,88,88,88,89,90,88,86,85,84,82,82,81,80,80,79,77,77,76,78,79,81,85,86,84,84,81,79,79,80,81,80,78,76,74,74,75,80,81,80,77,73,72,71,71,71,71,71,72,73,73,73,76,78,80,83,84,85,86,85,83,82,81,77,75,73,72,71,70,72,72,71,73,80,86,91,92,91,92,91,91,85,82,81,80,85,91,97,100,100,100,99,97,96,93,90,89,89,86,84,83,83,82,81,80,80,79,77,77,79,79,80,80,81,85,86,85,83,81,79,77,75,73,72,74,77,82,86,86,87,88,90,95,99,100,99,98,95,92,89,90,90,93,95,96,99,102,103,102,103,104,107,109,112,117,120,120,116,111,107,105,102,103,102,101,99,97,98,99,99,98,98,99,100,102,103,104,109,116,128,139,148,156,161,162,159,154,148,150,151,137,120,107,104,98,93,94,103,115,128,130,120,105,93,88,86,84,85,88,87,85,85,90,100,111,123,138,144,138,124,103,78,66,62,60,58,58,60,59,60,65,68,68,68,65,68,73,77,78,75,72,69,65,61,57,54,52,50,48,45,44,42,40,38,38,37,37,38,41,44,47,48,49,51,52,53,53,54,52,49,48,46,44,42,41,40,43,49,55,62,71,81,89,96,100,101,102,103,101,100,103,105,102,98,92,81,72,63,62,63,64,67,74,82,86,88,88,88,90,96,100,104,108,111,112,114,115,117,118,118,116,116,117,115,112,109,107,102,95,89,86,86,86,85,84,82,81,80,78,77,75,73,70,66,64,67,72,76,78,80,79,77,80,85,91,94,95,96,97,97,97,95,94,92,91,89,87,87,89,92,96,100,102,103,104,101,96,91,88,86,84,81,78,79,79,82,82,80,79,77,76,76,73,71,68,67,66,66,66,65,65,64,62,61,61,61,60,59,57,58,59,61,63,67,69,72,73,74,73,73,72,72,73,74,77,83,89,94,98,103,108,112,115,117,118,117,116,113,109,105,102,100,100,102,103,105,107,108,109,108,108,108,107,106,104,103,102,98,94,92,89,85,80,77,75,74,73,70,69,70,70,67,66,65,64,64,64,63,58,56,49,45,45,46,48,50,53,58,60,61,61,60,62,64,66,68,70,74,76,78,79,80,82,82,79,78,77,76,76,76,74,71,68
184,175,165,156,148,145,146,145,142,137,133,129,126,122,117,112,108,109,109,111,112,113,115,117,114,112,113,113,114,114,113,111,111,112,114,114,113,111,106,102,102,102,100,98,99,96,93,92,94,94,94,94,92,88,86,84,82,80,79,83,86,88,88,88,85,81,81,77,75,72,71,70,69,69,71,72,75,76,78,80,83,86,86,85,87,89,89,89,88,88,90,90,92,96,99,105,108,112,116,113,115,122,130,135,137,140,147,157,166,173,174,175,179,183,184,186,187,187,185,184,179,170,162,156,150,144,139,132,125,122,120,117,113,112,116,120,124,125,120,120,122,126,131,132,132,128,122,118,120,121,123,128,130,132,136,140,140,136,136,141,141,138,140,142,146,153,154,150,153,153,150,147,143,140,142,152,161,161,163,167,173,177,175,173,174,173,164,155,154,156,153,151,147,139,133,128,124,119,115,115,113,110,120,135,151,158,154,146,143,142,139,131,119,105,96,91,87,85,82,78,77,78,82,84,85,86,86,82,76,76,85,93,102,112,110,103,93,88,87,88,85,80,73,65,63,68,76,79,76,76,82,85,87,89,88,87,86,83,79,76,79,83,84,81,79,71,64,57,55,57,60,60,60,57,47,38,36,41,50,61,64,65,68,69,70,70,69,68,68,67,65,62,61,58,55,54,55,57,57,59,59,58,57,52,49,48,47,46,48,48,47,47,45,44,44,44,46,49,51,52,54,58,61,64,69,73,71,68,66,64,64,64,62,58,61,65,67,66,62,56,50,47,46,45,42,42,42,40,39,39,39,40,41,41,41,41,42,44,45,44,44,45,46,48,48,48,47,47,46,48,49,48,48,47,48,49,49,50,50,49,50,51,52,52,54,56,57,58,59,60,60,61,65,70,72,75,80,86,91,98,104,110,113,116,120,122,123,125,124,122,118,109,101,98,95,92,90,89,86,80,74,70,68,63,60,53,52,52,54,61,67,73,82,87,88,84,79,76,74,71,70,72,75,80,81,82,82,82,86,86,87,83,79,79,77,77,82,83,82,82,78,76,74,71,68,66,63,58,54,55,58,61,62,62,60,60,60,60,62,66,70,73,75,74,74,74,74,73,71,71,73,77,80,83,86,88,89,90,86,85,82,76,72,68,66,66,64,60,55,52,54,60,67,71,72,72,74,73,73,74,73,72,72,72,70,69,67,64,63,62,62,60,59,58,58,58,58,57,56,55,57,64,67,68,68,67,67,68,69,67,63,63,64,66,70,71,70,69,67,66,67,66,65,64,63,64,65,66,68,71,74,79,86,94,101,102,101,103,103,102,103,107,107,105,106,108,107,104,99,95,93,95,97,96,95,95,94,90,87,84,83,83,84,84,84,85,85,84,84,84,84,82,79,78,77,75,75,76,76,77,77,78,79,78,80,82,85,85,79,77,76,75,73,73,75,75,74,76,78,80,80,79,78,76,75,74,72,74,72,72,73,71,72,73,73,72,73,74,75,76,78,82,84,84,83,83,81,82,82,80,79,77,80,83,80,75,75,75,77,78,80,86,85,84,84,86,87,88,87,86,87,88,88,87,86,84,82,82,80,77,76,76,78,79,77,77,76,75,77,79,81,83,84,83,81,79,78,79,78,78,77,76,74,73,72,72,76,77,74,72,71,71,71,71,71,71,71,72,75,76,78,80,82,84,84,83,81,78,75,74,73,71,70,69,69,68,69,70,68,68,72,80,87,90,89,88,87,86,82,77,75,73,73,76,81,89,96,99,99,98,98,97,95,94,92,90,89,90,91,89,88,86,84,82,80,78,76,76,76,78,81,83,84,86,86,85,83,79,76,73,71,70,72,75,80,83,85,88,90,94,98,102,103,102,100,98,96,94,92,92,96,100,104,105,106,108,108,107,109,112,114,117,117,117,117,114,109,107,103,100,101,101,101,98,96,95,95,97,96,96,97,97,100,105,109,114,122,132,140,147,152,154,151,146,141,136,141,135,113,99,97,97,95,90,86,86,88,93,90,84,82,83,85,84,82,80,78,77,77,77,75,75,79,88,102,117,122,117,106,86,69,62,59,57,55,54,53,52,53,54,54,53,52,53,56,59,61,63,66,67,66,64,60,56,53,49,45,44,43,40,41,37,37,37,37,39,41,45,49,51,53,56,58,59,60,61,61,59,57,54,49,43,41,41,42,45,50,55,62,71,80,85,87,86,83,78,78,81,83,84,82,81,74,66,61,63,71,74,72,68,69,73,79,82,79,79,83,87,92,97,102,107,112,114,115,117,119,121,119,117,116,114,112,109,105,101,96,92,90,91,91,90,90,89,88,84,82,81,77,74,69,64,64,70,77,81,84,85,85,83,81,80,85,89,93,97,98,100,99,99,97,97,97,95,93,93,93,93,97,100,101,103,103,99,96,93,90,86,82,80,78,76,75,75,75,75,74,73,72,73,71,69,66,66,65,65,64,62,61,61,60,61,62,61,59,59,59,59,60,62,64,66,69,72,74,75,77,76,76,77,77,77,77,82,86,91,95,102,107,111,114,116,116,115,113,110,108,106,104,103,103,103,103,105,106,108,110,109,107,105,102,100,99,97,95,92,90,87,83,81,77,75,73,70,67,64,62,61,61,60,59,58,58,55,53,54,52,49,47,47,49,51,53,53,53,56,61,61,62,64,67,69,72,75,77,77,80,81,82,84,84,84,83,81,80,78,77,75,71,67,62
175,163,153,143,136,134,134,135,133,129,126,122,119,114,112,109,106,104,104,106,109,108,105,104,104,105,104,105,103,101,104,105,103,106,109,108,107,105,104,102,98,95,94,93,95,91,86,85,88,91,92,89,87,85,83,80,78,77,77,80,81,81,82,83,81,78,79,79,75,71,69,68,67,66,67,67,69,71,71,74,76,79,80,80,81,85,84,83,82,83,88,93,99,104,107,113,119,124,127,125,127,133,138,146,151,153,155,163,168,170,174,179,181,183,184,184,183,181,180,176,172,166,161,154,148,141,138,132,128,124,122,119,113,110,111,114,117,115,112,116,120,121,124,125,126,122,118,114,115,118,122,124,126,130,134,134,131,127,129,135,133,131,134,138,144,147,145,141,141,139,137,133,132,132,141,152,156,155,155,157,166,170,159,149,149,150,146,142,144,146,143,145,145,140,133,128,122,117,114,110,107,105,114,131,143,150,154,148,140,129,122,116,104,97,94,89,85,84,83,80,78,76,75,76,82,87,87,81,75,73,79,83,89,99,98,93,90,84,81,84,84,82,78,71,64,61,61,63,67,77,86,88,88,88,87,85,84,83,80,73,70,71,74,74,72,67,60,56,53,50,51,52,53,51,43,38,38,43,54,61,64,65,66,69,69,69,66,65,65,64,63,60,56,54,52,51,52,53,56,58,58,53,49,47,46,46,45,45,46,46,45,45,43,42,43,44,48,50,50,52,55,58,61,65,68,67,66,64,63,63,62,62,59,56,55,59,61,61,56,51,47,45,45,44,43,43,40,39,40,38,38,39,39,39,40,41,42,42,42,43,44,45,45,46,46,45,45,46,46,46,46,46,46,46,47,49,49,47,47,49,52,58,61,59,57,56,57,58,58,57,59,62,66,68,71,76,81,84,87,90,95,100,103,106,112,116,118,118,116,116,114,111,107,103,98,95,94,91,88,84,78,74,70,67,61,54,52,52,52,57,62,69,78,86,88,86,82,77,74,72,72,72,75,78,77,77,78,77,78,77,78,74,71,70,69,72,76,76,76,77,75,72,69,67,62,61,61,56,53,55,57,58,59,58,57,58,60,61,63,66,67,69,70,71,71,72,74,75,76,80,85,88,91,93,93,92,91,91,89,87,85,82,79,76,74,73,70,63,55,52,58,68,74,76,75,74,74,72,71,71,68,67,67,66,65,64,63,62,60,59,59,59,58,57,56,55,55,55,55,55,59,66,65,65,69,71,71,72,68,64,63,64,67,70,71,72,70,68,65,64,63,63,65,63,60,62,64,63,65,68,71,78,87,92,98,100,101,102,100,99,99,102,103,102,101,102,103,101,100,96,93,94,95,94,94,91,89,88,87,84,84,83,84,83,83,83,82,82,82,82,82,81,81,78,76,76,76,78,79,78,78,79,79,79,80,81,83,81,78,77,76,75,74,74,74,74,75,75,75,75,75,76,76,76,75,73,73,73,71,71,70,71,72,73,73,73,73,73,76,77,80,83,84,83,82,83,80,81,81,80,77,76,79,81,79,73,73,75,76,76,80,85,84,87,88,87,85,86,85,84,84,84,83,83,83,81,80,79,79,77,76,75,77,79,77,75,75,75,77,78,79,80,81,82,82,81,81,81,81,80,78,77,75,75,74,73,72,71,71,72,71,70,70,71,72,71,72,74,75,77,80,81,82,83,82,80,76,73,73,71,69,69,68,69,70,68,67,68,67,69,70,74,79,82,84,84,85,84,81,76,73,72,72,73,77,83,88,94,97,98,97,97,97,96,93,92,93,94,95,95,95,92,90,88,86,82,76,76,76,76,79,81,84,85,85,85,84,81,77,74,71,70,71,74,76,78,81,85,90,97,101,103,104,101,99,99,99,98,97,98,100,104,106,110,111,110,110,110,109,111,111,112,111,112,111,109,105,103,100,97,98,99,99,97,95,94,94,93,94,94,95,97,102,107,113,118,124,131,138,141,143,142,138,133,126,128,133,122,105,92,91,93,92,89,83,80,79,79,77,76,78,82,83,83,82,80,77,76,75,72,69,69,68,69,71,81,88,89,87,76,65,59,58,55,52,52,52,49,49,52,52,51,49,49,53,56,59,63,64,65,65,62,61,57,54,50,46,44,42,40,39,37,38,38,37,38,42,46,51,53,57,61,65,68,70,73,74,73,71,66,59,49,44,43,43,43,46,51,57,64,70,74,74,71,61,53,53,56,60,65,63,60,57,60,68,76,80,81,81,77,74,69,70,75,81,85,85,87,89,93,97,101,107,111,113,116,120,124,123,119,118,117,115,112,108,105,101,97,95,95,95,94,92,91,89,87,85,84,81,77,70,65,65,72,79,85,88,90,90,91,89,87,85,86,90,93,96,100,102,102,101,102,102,100,98,97,97,97,98,102,104,105,103,100,98,93,89,86,84,82,81,79,77,77,75,73,72,71,71,69,68,68,67,67,66,66,65,64,64,64,64,65,66,65,62,61,60,60,61,63,65,67,68,70,74,76,78,80,80,81,82,83,81,82,86,90,94,99,106,112,113,113,111,109,108,106,104,102,102,100,100,101,101,102,102,102,103,102,100,96,95,94,94,92,90,87,86,85,83,81,79,78,75,72,69,66,63,59,56,54,55,54,53,49,47,48,47,48,49,50,52,55,58,57,58,59,60,62,65,68,71,74,77,78,80,82,84,84,84,84,84,83,83,81,79,77,73,71,67,63,58
167,158,150,144,140,136,131,127,123,121,119,117,114,112,111,110,107,108,109,110,112,112,107,106,107,106,103,101,100,99,97,96,95,99,102,101,102,99,99,97,92,90,88,87,89,88,85,82,81,84,86,86,84,80,80,76,74,72,75,78,80,80,81,79,78,78,76,75,72,67,66,66,66,65,64,63,66,69,70,72,72,76,76,74,75,77,78,78,81,86,89,93,99,105,109,114,122,132,139,142,146,152,155,158,163,167,170,173,175,177,179,183,181,182,181,181,179,177,173,165,163,161,154,148,143,137,134,131,128,125,122,118,112,108,106,109,110,106,107,113,116,118,121,120,120,118,115,111,110,114,116,117,122,128,132,131,127,124,127,128,126,127,131,137,143,144,140,137,135,132,131,127,127,134,145,149,148,148,150,155,162,160,147,138,132,131,132,134,134,136,135,137,137,131,127,123,119,115,111,107,105,101,105,117,125,133,138,127,113,103,97,92,90,92,92,88,86,85,85,84,83,81,78,72,73,85,85,83,77,73,73,76,79,84,86,87,85,80,75,79,83,81,79,75,66,58,56,60,71,85,90,90,89,87,86,84,83,81,77,74,69,67,66,64,63,60,56,54,54,51,49,48,47,47,41,35,36,44,56,61,61,63,63,64,65,65,64,62,61,60,58,57,55,53,52,50,51,53,56,55,51,46,45,44,45,43,44,44,43,43,44,43,42,42,44,46,48,48,50,52,56,59,62,66,64,58,54,52,53,54,57,59,57,54,52,52,53,52,48,45,42,42,44,43,42,41,39,38,39,38,38,38,39,40,41,41,43,44,43,43,43,45,44,44,43,44,44,44,44,45,44,44,45,46,46,46,47,47,48,51,53,56,60,60,59,57,57,56,58,60,63,70,73,75,78,82,86,86,85,87,91,97,98,101,105,110,112,115,114,110,106,106,105,102,97,95,93,90,86,81,77,73,69,64,60,57,53,52,52,55,59,64,71,79,85,87,85,81,78,77,75,73,70,69,70,71,74,72,72,72,70,68,66,66,64,65,67,68,68,70,68,64,62,59,56,55,54,53,54,54,54,55,56,59,60,62,62,62,62,64,65,68,69,70,71,74,77,80,84,88,91,93,94,94,94,91,89,89,88,86,84,84,83,81,78,75,69,61,54,52,61,68,71,71,71,71,70,69,69,65,61,60,60,60,59,57,58,58,58,58,59,57,58,57,56,54,53,53,54,55,58,62,66,69,72,71,68,63,61,63,66,67,69,70,70,69,68,65,64,63,62,61,61,61,61,61,63,63,66,69,71,75,78,82,85,93,98,101,100,96,96,96,95,94,94,94,96,99,100,96,93,91,91,90,90,89,89,88,87,85,85,83,81,81,81,82,83,85,85,85,82,80,79,78,77,75,75,77,79,80,80,81,80,80,79,78,79,78,76,77,77,75,73,73,73,73,74,75,77,75,74,74,74,73,74,74,74,72,72,72,70,71,71,72,72,73,74,78,80,82,84,85,84,82,81,81,80,80,80,80,78,76,77,77,76,76,75,73,74,78,84,84,84,88,90,87,84,82,83,84,83,83,82,80,81,80,79,81,81,80,79,79,78,78,77,76,74,73,75,77,79,80,80,81,82,82,81,83,85,83,80,80,79,76,75,74,73,74,73,72,71,71,70,70,70,70,73,75,77,80,81,83,83,80,77,74,72,73,72,71,68,67,67,66,67,67,67,67,66,68,69,69,71,74,77,79,80,79,76,73,71,70,70,70,73,77,81,85,93,98,99,99,98,97,97,97,96,98,99,100,99,97,95,92,89,85,83,79,76,75,75,75,77,79,79,81,79,76,73,71,70,70,74,77,79,81,82,84,90,97,100,102,101,98,98,97,96,95,95,96,97,99,104,106,105,106,106,105,104,103,103,104,105,107,107,104,101,99,97,95,97,96,96,96,94,94,94,92,91,91,94,98,104,108,110,114,119,125,132,135,135,132,125,115,112,119,123,111,99,88,86,87,85,83,79,75,74,74,74,73,75,78,79,79,79,79,76,74,74,72,68,66,65,64,63,62,62,62,62,59,58,56,55,54,51,49,49,48,47,48,48,46,46,46,46,46,49,54,55,57,60,59,57,54,53,50,46,43,41,40,40,36,37,37,37,39,45,49,52,58,64,71,76,80,84,88,90,88,84,78,68,58,48,43,44,44,46,50,55,60,63,64,60,56,57,62,64,63,60,58,58,59,65,73,82,86,88,89,87,85,80,74,72,78,85,90,92,94,95,95,96,100,105,109,113,116,119,123,124,121,120,118,116,113,110,106,104,101,99,98,96,95,95,93,90,88,87,83,80,77,72,67,67,72,80,87,91,94,95,95,95,94,92,90,87,90,93,99,102,104,105,105,106,106,105,103,104,104,103,105,106,106,105,103,102,98,94,92,90,88,86,84,81,80,78,76,75,74,74,73,73,72,71,71,71,71,69,67,67,68,69,69,70,68,63,61,61,62,64,67,69,69,70,71,72,75,78,82,84,86,87,88,87,88,90,94,97,101,105,107,108,107,103,98,96,95,94,94,93,93,93,94,95,94,94,93,93,92,91,91,88,87,87,87,86,82,81,81,79,77,76,74,71,68,65,61,59,56,54,52,52,51,49,48,47,50,51,52,53,55,55,57,60,62,63,64,65,66,68,72,75,78,82,84,84,85,86,86,87,86,85,84,82,79,77,73,70,66,61,58,53
167,164,161,154,147,141,135,130,125,122,120,118,116,115,115,114,113,117,121,123,123,120,116,117,117,113,110,108,108,106,103,99,94,93,94,93,93,92,92,91,90,87,84,84,84,82,80,78,77,78,79,78,76,75,74,72,71,70,72,76,78,78,78,78,76,74,71,68,66,64,64,65,62,63,65,67,69,71,73,74,74,73,74,74,74,78,82,85,89,93,95,97,100,104,109,116,124,137,156,168,172,174,175,177,179,182,182,179,178,179,180,181,177,172,171,167,164,160,155,149,146,143,141,138,135,132,131,127,125,124,121,118,114,109,105,103,103,104,109,115,117,119,118,115,114,114,110,109,107,105,109,114,120,125,129,128,123,118,117,119,121,124,127,133,138,140,141,138,132,126,124,125,132,140,143,142,141,143,146,151,157,150,137,131,126,125,124,125,125,126,126,126,123,119,115,112,110,108,104,102,102,98,97,99,109,120,123,117,108,104,101,96,92,88,86,84,84,85,85,86,85,82,79,74,70,74,78,79,77,71,68,68,78,85,86,85,82,77,72,68,70,76,80,75,68,61,58,60,73,80,80,81,78,78,77,75,73,72,70,67,64,63,62,59,60,58,57,56,54,51,50,46,44,42,38,35,39,46,54,56,58,61,61,61,61,60,59,59,58,56,55,56,55,53,52,50,50,53,55,53,47,44,46,46,44,41,42,42,42,43,43,42,42,44,45,47,49,51,53,54,56,59,63,64,58,53,52,50,47,49,52,56,54,49,47,48,47,45,44,43,41,42,42,41,40,40,39,36,37,38,37,40,41,41,40,41,40,42,43,42,42,43,43,43,43,46,48,46,46,47,47,47,48,47,47,48,47,47,47,49,50,51,52,55,56,58,60,60,62,64,68,75,81,86,90,91,90,89,88,84,86,90,93,97,99,104,108,112,111,105,98,92,91,91,92,89,87,85,85,82,78,76,73,68,65,61,57,52,52,55,60,63,68,74,81,84,85,82,78,76,76,78,76,73,71,69,71,71,68,64,64,62,60,62,61,58,57,57,57,59,60,59,55,51,52,54,55,56,58,64,66,66,65,68,71,73,71,69,69,69,69,71,72,75,76,78,81,84,87,89,90,89,90,89,89,87,86,85,83,82,82,81,80,79,77,73,68,62,55,52,55,60,63,63,63,63,63,62,62,60,58,56,55,55,56,55,55,56,56,58,57,57,57,56,55,55,54,53,54,55,58,63,67,71,73,69,61,59,64,69,70,71,72,70,70,67,65,62,61,61,61,60,61,61,61,62,63,63,64,67,69,71,73,75,78,83,91,97,100,100,99,97,96,95,94,93,98,101,102,99,94,92,91,89,87,88,87,87,87,85,85,84,81,79,79,80,86,89,89,88,81,79,79,79,77,75,75,75,78,78,79,80,79,78,79,77,77,77,75,75,75,75,73,73,74,72,72,75,76,75,74,73,73,73,74,74,74,74,73,73,72,71,71,72,73,75,81,83,83,85,87,85,84,82,82,82,81,81,80,79,77,75,75,75,74,76,77,76,75,78,81,83,81,80,83,80,79,82,83,83,83,82,80,79,79,79,79,80,82,84,83,83,81,79,79,78,75,74,73,74,76,78,79,81,81,81,84,86,86,85,84,82,81,79,77,75,74,74,74,75,73,72,71,71,71,70,72,75,77,81,82,82,80,76,74,72,71,70,71,71,69,67,67,66,66,67,66,66,66,65,67,67,68,68,70,73,74,73,73,73,74,72,71,70,71,72,76,82,88,95,98,98,98,98,97,96,96,97,101,104,102,100,98,97,94,91,89,86,82,78,77,76,75,75,74,74,73,70,67,68,69,71,75,79,84,86,88,88,92,97,98,96,94,93,92,92,90,90,90,91,90,90,94,96,100,102,100,98,98,97,96,99,101,102,101,101,100,97,94,91,92,92,93,96,94,92,91,90,89,91,93,96,101,104,107,110,115,120,123,125,125,120,112,102,97,99,103,98,93,88,83,81,79,78,78,74,71,70,68,68,71,74,76,76,76,76,76,73,71,69,68,65,62,61,60,61,61,60,57,53,52,52,51,48,46,47,48,46,46,46,46,44,43,40,39,38,39,39,39,39,41,45,50,52,52,50,46,43,41,42,44,40,37,37,37,38,42,51,60,71,78,86,92,97,100,102,102,101,97,89,78,65,52,46,44,45,47,49,51,52,50,50,53,59,68,74,78,78,76,74,73,74,80,85,89,94,95,95,93,92,87,80,74,73,78,87,92,96,98,100,101,103,106,110,113,116,118,120,123,121,120,119,118,116,112,108,105,101,99,97,93,91,91,90,88,85,82,78,75,74,71,67,67,72,79,86,91,96,99,99,100,100,97,95,93,91,92,97,99,102,105,108,110,109,109,109,109,109,108,109,109,108,106,105,103,101,99,96,95,94,91,89,86,84,82,80,79,79,78,77,76,75,77,76,76,76,74,73,74,73,74,74,71,67,62,60,60,62,67,70,72,74,75,76,75,76,78,82,85,89,92,93,93,94,97,100,102,103,103,102,100,96,90,87,85,83,83,84,84,85,85,85,85,85,85,85,84,84,84,84,82,80,80,81,79,76,74,73,73,70,69,67,64,61,58,54,52,50,49,48,49,49,48,49,52,55,56,57,58,60,60,60,62,64,67,70,71,71,72,75,77,80,84,86,87,88,88,88,88,86,84,81,78,75,72,68,64,58,53,50,47
178,174,169,165,160,152,142,136,132,127,125,123,122,122,122,122,127,132,133,131,127,124,122,122,122,119,118,116,114,110,106,102,100,97,95,92,90,87,87,89,88,86,84,83,83,82,79,79,80,82,81,78,76,75,74,72,72,70,70,73,73,74,74,75,74,73,70,69,66,64,62,62,62,63,67,69,72,76,80,81,80,78,77,78,81,83,88,92,97,101,104,106,107,110,116,123,128,139,161,178,182,185,187,190,190,190,185,180,177,175,174,173,166,161,156,150,148,147,143,140,138,135,134,132,130,127,126,124,122,120,118,116,113,111,105,101,101,104,109,115,116,116,112,108,108,108,107,105,103,102,108,115,116,117,118,119,114,113,116,120,126,129,129,129,132,133,134,131,128,124,121,124,131,139,141,139,139,140,143,154,156,141,128,123,121,120,118,118,119,119,118,115,111,109,110,110,109,108,101,96,97,98,96,94,96,100,104,111,120,123,119,109,100,92,85,83,85,85,82,84,85,83,81,76,69,71,74,76,76,71,69,65,75,86,86,85,84,80,75,70,65,68,75,73,66,59,55,59,67,72,74,75,74,73,72,70,70,69,68,67,65,63,60,58,57,55,54,53,52,52,50,47,44,40,37,35,39,50,54,56,56,55,57,58,58,58,58,56,56,55,54,55,55,55,55,51,49,52,55,52,45,42,43,42,42,42,41,41,43,44,43,41,40,42,46,49,52,56,57,58,59,61,62,62,58,53,51,47,46,49,54,55,52,48,46,46,45,43,42,41,41,41,40,40,39,40,39,39,39,38,39,41,39,38,38,39,40,41,41,41,42,42,43,43,44,47,49,49,51,51,52,51,52,53,53,52,50,50,50,50,50,51,52,54,56,59,62,64,66,70,78,84,89,94,97,97,95,91,88,84,81,80,82,85,89,94,99,102,103,98,94,89,87,85,84,82,80,78,81,83,83,80,76,72,69,64,58,52,52,54,60,65,71,79,83,85,83,81,77,76,75,74,75,75,75,75,73,69,66,65,64,65,63,62,62,61,60,58,56,54,53,52,52,53,58,63,67,69,72,76,78,79,79,79,81,80,78,76,75,73,73,75,77,78,80,82,84,84,85,84,84,84,85,86,85,83,82,81,80,78,77,77,76,75,73,71,68,64,58,54,54,55,55,56,57,57,56,56,56,55,56,55,53,52,52,53,53,52,53,55,56,58,58,59,57,55,53,52,53,56,60,63,65,69,69,63,60,62,68,72,72,74,74,72,71,69,65,61,59,59,60,60,59,59,59,61,63,65,67,66,66,67,69,70,72,76,85,95,99,99,98,94,95,95,94,94,97,101,102,96,93,92,91,90,89,87,85,84,83,83,83,82,82,80,80,79,79,82,84,84,80,78,79,78,77,76,75,75,77,77,77,78,77,76,77,78,77,77,76,76,76,75,74,74,74,73,74,74,73,73,73,72,72,72,73,72,72,71,71,72,72,71,71,71,73,75,80,81,81,83,84,82,80,79,79,78,77,77,78,79,77,75,75,73,75,77,76,77,78,79,82,85,85,84,82,81,82,84,85,85,85,85,82,80,80,79,79,81,83,85,85,85,83,82,80,78,76,74,73,72,74,77,78,79,80,83,87,90,89,86,84,82,81,80,77,76,75,74,73,73,73,72,71,72,70,70,72,75,79,81,80,77,74,72,72,70,69,68,70,71,70,69,67,65,65,66,65,65,65,66,67,65,66,67,70,72,72,71,70,74,76,75,72,72,75,76,78,81,83,84,88,94,97,98,97,95,95,95,98,102,103,101,99,99,97,93,91,88,85,83,82,79,76,75,74,72,71,69,67,69,72,75,78,80,83,87,91,92,94,95,94,93,92,90,89,88,88,87,87,85,85,85,88,90,92,93,94,95,96,96,97,99,100,102,101,99,97,97,95,92,92,90,89,90,89,88,88,87,86,88,90,93,97,100,104,107,109,111,114,114,113,110,104,94,89,84,79,82,85,84,80,77,76,75,71,72,69,66,67,66,69,73,74,72,74,75,73,70,69,68,67,63,59,59,59,59,59,58,56,54,51,50,49,47,46,46,48,47,44,42,42,42,41,39,37,38,38,38,39,38,38,39,40,43,47,47,45,43,43,42,41,39,38,37,37,38,41,55,74,88,96,103,107,110,111,113,112,110,105,98,88,73,56,45,42,42,43,46,45,46,49,55,64,73,80,84,88,89,89,88,87,88,90,93,96,100,101,100,99,96,92,87,81,76,73,77,85,91,95,99,101,104,107,110,112,115,117,118,119,119,120,120,117,115,112,109,105,102,97,92,91,89,87,86,83,81,79,77,77,76,73,70,69,71,78,86,92,97,101,103,104,104,103,101,98,97,95,96,98,102,105,108,110,111,112,113,113,112,111,110,109,108,107,105,104,102,101,99,98,97,94,92,90,89,86,84,85,85,84,82,82,81,80,80,80,79,77,77,77,77,76,73,69,64,62,60,60,63,68,71,75,77,79,80,80,80,81,83,85,88,92,96,99,99,100,101,101,100,99,96,91,86,83,80,79,77,75,76,77,77,79,80,80,80,79,78,77,76,78,78,78,75,73,73,72,70,68,65,64,63,61,59,57,55,54,52,49,47,48,49,50,51,50,51,56,59,60,62,64,65,65,64,64,66,70,73,76,75,77,79,81,83,85,88,90,90,89,88,86,83,79,74,70,66,63,60,56,52,49,45,44
186,183,179,175,169,160,153,148,143,139,135,134,133,132,129,128,133,137,136,134,133,130,128,126,124,123,122,120,116,113,110,107,103,101,98,98,97,94,93,92,92,89,88,91,90,90,87,86,87,87,89,89,86,82,81,79,78,76,74,72,70,70,70,72,73,73,72,71,68,65,62,61,60,61,65,69,73,76,79,81,85,85,84,84,85,88,94,98,101,106,112,114,116,119,122,126,130,136,145,156,160,167,175,181,184,184,182,171,167,166,162,156,153,149,145,143,141,139,137,135,131,128,129,128,125,123,121,120,118,117,116,113,111,106,101,99,98,101,105,109,112,113,109,105,102,100,101,102,103,104,106,110,110,109,110,110,111,114,121,128,129,128,127,127,127,128,128,125,121,119,120,126,132,137,136,134,135,139,146,155,151,139,131,123,120,117,114,112,111,112,111,106,105,105,109,112,109,101,93,92,91,91,92,91,91,94,98,105,118,125,119,110,103,93,88,84,84,83,78,80,82,78,76,74,71,69,68,67,66,63,62,62,68,79,84,86,86,84,80,73,66,60,61,63,61,56,56,63,67,70,74,76,77,78,77,77,77,76,76,73,72,68,67,65,64,58,53,51,49,48,45,43,42,41,36,35,40,47,51,54,56,56,55,55,56,57,58,57,56,55,55,60,61,60,57,51,48,49,47,45,42,41,41,41,41,40,41,42,43,43,43,42,40,42,46,50,53,59,61,63,64,64,63,60,55,51,48,46,45,48,52,52,51,48,46,46,45,41,41,41,40,41,41,40,39,38,38,38,39,40,39,39,39,40,40,42,42,43,43,44,44,45,47,49,50,52,51,49,50,52,54,55,56,56,55,53,53,52,52,52,52,52,53,55,57,57,61,66,69,74,84,91,95,99,99,99,96,91,88,84,81,78,78,80,85,89,93,98,99,98,94,89,86,82,81,79,75,74,74,78,81,80,76,72,69,64,61,56,52,54,60,66,73,80,83,83,82,78,76,74,72,71,71,73,73,73,74,74,74,76,78,72,69,68,68,66,64,63,60,58,54,51,50,54,65,70,71,73,75,77,79,80,82,83,84,83,82,79,77,75,75,77,76,77,79,79,81,81,80,77,77,79,80,81,80,79,77,75,74,73,72,73,72,72,69,68,69,66,61,55,53,51,51,51,52,52,52,51,51,52,53,52,52,51,51,49,49,51,51,52,54,55,57,56,56,56,54,53,54,58,64,67,68,69,65,62,60,61,67,71,69,70,70,69,68,67,67,66,63,61,61,60,59,58,61,62,63,64,64,64,63,63,65,67,70,73,80,93,96,97,96,88,89,93,93,92,94,97,98,95,94,92,91,92,92,90,88,86,85,82,81,81,80,80,79,78,78,79,82,84,81,77,77,77,77,76,75,75,75,75,76,77,77,76,78,79,80,80,77,76,75,74,72,72,73,72,73,72,71,70,70,70,70,72,73,73,72,71,72,72,71,70,69,70,71,71,73,74,75,76,77,78,76,75,75,75,78,78,78,77,75,76,75,76,76,75,76,79,79,79,85,88,87,87,84,84,85,86,87,87,87,87,85,82,80,78,78,79,82,83,83,83,82,82,79,77,74,72,71,73,76,78,79,81,81,82,86,89,87,85,84,82,80,80,79,78,78,75,74,73,72,69,68,69,69,71,72,73,76,78,77,76,75,74,70,68,66,66,70,72,73,72,71,67,66,65,65,65,66,67,65,64,63,64,67,69,70,67,69,75,76,71,67,72,76,77,79,76,73,75,79,84,89,92,94,93,93,93,93,96,101,101,100,100,97,94,92,90,88,87,85,83,81,79,77,75,72,70,69,71,77,82,85,85,87,88,90,90,90,90,88,87,87,85,85,84,84,82,82,84,86,88,89,91,91,91,91,94,95,96,97,100,101,102,101,100,100,101,100,98,99,97,93,88,88,88,88,87,87,88,89,92,94,97,100,102,103,102,103,105,104,105,99,89,84,79,77,75,76,78,75,73,72,72,71,70,69,66,65,64,69,75,73,72,74,72,68,66,68,67,66,63,60,58,57,56,55,55,54,53,51,51,49,47,45,46,46,44,44,44,42,40,39,37,36,37,39,40,40,39,40,39,39,37,40,45,46,45,43,42,40,40,40,42,41,39,40,57,87,103,111,117,121,123,123,124,123,118,111,105,97,83,63,50,45,44,42,43,47,51,57,65,74,82,87,92,95,97,97,98,97,98,100,101,104,106,106,105,103,101,97,92,87,83,78,75,77,80,85,90,95,98,102,105,108,111,114,116,117,118,119,119,117,116,113,110,107,104,100,98,96,93,91,88,85,84,84,84,84,82,78,74,71,70,77,84,91,97,101,104,105,105,105,105,107,108,108,105,102,102,105,108,110,113,115,116,115,113,112,110,108,105,100,98,99,98,98,97,97,97,95,94,93,92,90,89,89,88,89,87,85,85,84,83,83,81,80,80,80,78,76,71,67,62,61,61,62,63,67,70,73,76,79,80,81,83,84,86,89,92,96,99,102,103,103,101,98,95,91,86,81,79,78,77,76,73,72,72,73,74,75,72,71,72,73,71,70,70,72,73,73,71,69,68,66,64,63,61,58,55,54,52,51,50,50,50,49,49,50,53,55,55,55,56,59,61,63,66,68,69,69,68,68,69,72,74,77,80,82,84,86,87,89,90,90,90,89,86,83,78,73,66,63,59,55,52,50,47,46,44,44
195,190,185,180,171,165,160,156,154,152,148,144,143,138,133,134,140,144,144,143,142,139,137,134,133,131,128,125,122,120,116,111,109,106,105,103,105,104,102,97,94,94,94,95,96,94,92,90,91,92,94,92,90,86,84,84,82,79,78,73,70,68,66,66,66,68,70,71,68,65,62,60,60,60,63,66,68,71,75,79,83,85,87,90,92,93,97,100,104,107,110,112,115,118,120,124,128,131,134,135,137,142,148,150,149,149,154,153,152,148,146,145,142,140,139,137,134,131,130,128,126,123,121,122,119,117,116,114,112,110,110,108,107,104,100,97,94,97,101,104,107,109,108,105,102,99,97,99,101,102,104,105,106,104,107,110,115,121,123,125,125,123,122,123,121,122,122,118,117,117,119,127,133,135,132,133,134,137,144,150,143,131,125,122,119,114,113,111,110,108,106,102,101,100,101,106,104,98,94,91,90,89,88,87,86,89,94,96,102,104,99,95,96,94,89,85,81,78,74,76,79,76,74,72,68,66,65,64,64,63,61,60,59,61,66,76,81,79,76,73,68,63,57,53,53,53,58,64,70,73,75,79,82,85,89,91,91,88,84,80,77,73,71,69,66,60,54,51,49,46,44,42,40,37,34,35,39,43,50,54,56,54,55,56,57,57,56,56,55,55,54,59,60,54,52,47,45,44,44,42,39,40,42,43,43,42,42,42,42,43,42,40,39,43,47,51,54,58,61,61,61,63,63,59,55,51,47,45,44,49,52,51,50,46,45,46,45,43,41,41,41,40,40,40,39,37,37,36,38,39,39,40,42,43,44,47,48,47,48,50,49,47,47,48,51,52,53,54,56,56,55,56,59,60,59,56,55,55,55,56,55,54,53,55,57,59,62,65,68,71,82,94,98,100,99,96,93,90,86,84,82,77,76,78,81,86,91,96,100,100,97,94,92,89,84,82,80,75,71,71,76,79,76,75,73,69,64,59,53,52,59,70,77,79,81,82,79,75,72,69,68,66,67,67,68,68,68,69,68,69,70,68,66,65,64,63,62,60,58,57,56,51,51,57,66,70,69,69,71,73,73,74,76,79,80,80,80,79,78,76,74,73,73,73,73,73,74,74,73,71,70,72,72,73,73,73,73,71,69,67,68,68,68,68,67,65,64,63,61,57,53,51,49,49,49,49,48,49,48,49,51,50,50,49,49,50,50,51,53,52,53,55,56,54,55,57,56,53,54,58,64,66,67,68,68,66,61,59,61,66,67,67,66,66,63,61,62,66,69,64,60,59,57,58,60,61,63,62,62,62,63,62,63,66,69,71,74,82,87,89,89,85,83,87,85,88,91,92,91,92,93,93,93,91,91,93,93,93,90,84,82,81,80,81,80,79,80,85,89,89,87,81,77,77,77,78,77,76,75,75,75,77,79,80,79,79,80,81,80,77,76,73,72,73,73,73,72,71,71,69,71,72,71,71,72,72,71,71,71,71,70,70,69,69,70,71,71,71,72,72,72,73,72,72,74,76,77,78,77,76,75,75,76,77,77,75,77,79,80,81,82,83,85,86,84,83,83,83,85,88,89,88,87,85,82,80,79,78,78,79,80,80,79,77,76,75,73,74,74,76,78,79,80,82,84,85,86,87,86,86,84,84,83,82,80,79,78,75,74,72,71,69,68,69,68,70,71,72,74,72,71,73,72,71,71,71,70,69,69,69,69,71,72,71,67,66,66,66,66,65,64,63,63,64,64,66,68,66,68,72,71,67,69,73,75,76,76,72,70,71,73,75,79,84,91,93,93,91,92,91,94,98,99,99,97,96,95,92,89,87,84,84,83,80,78,75,72,69,69,73,81,85,86,89,90,88,87,85,85,84,82,82,80,81,82,81,81,81,83,87,92,96,97,99,98,94,93,95,98,98,98,100,100,98,96,99,103,103,102,101,100,97,91,89,88,88,86,84,84,86,88,90,91,94,96,95,95,95,96,95,96,98,93,87,80,75,73,71,70,70,69,70,70,70,71,69,68,66,65,63,63,67,67,69,69,68,66,66,66,66,64,63,62,60,56,54,53,51,52,52,51,49,48,48,47,44,43,43,44,46,48,44,39,39,38,37,38,39,41,40,39,38,38,39,38,40,45,45,43,42,41,40,39,40,42,40,41,56,90,113,122,129,132,134,132,131,129,125,117,111,102,89,74,56,47,45,46,46,50,55,60,64,68,79,86,91,97,101,103,105,107,109,110,110,111,112,112,110,109,107,103,97,92,89,88,86,82,79,79,80,84,89,93,95,98,101,105,109,110,113,117,117,117,117,115,113,110,107,105,103,100,98,95,92,88,88,88,90,90,88,82,76,72,71,77,83,89,96,101,104,106,107,107,108,109,114,116,116,113,108,107,109,111,114,115,115,115,115,112,106,102,99,96,92,92,93,92,93,93,94,94,92,93,93,91,90,89,89,88,88,87,87,84,83,82,81,80,79,79,78,75,70,66,62,61,62,63,66,67,68,69,72,75,78,81,83,85,89,93,96,98,103,105,106,106,103,97,90,84,79,76,75,75,73,72,71,68,67,67,68,68,67,67,66,67,67,65,65,66,68,70,68,66,63,62,60,58,56,54,50,50,50,51,50,50,51,52,54,56,58,59,59,59,58,60,63,66,70,72,73,73,73,74,74,76,78,80,83,86,88,89,90,89,90,90,88,85,80,75,69,64,58,54,51,48,49,50,50,49,48,48
197,194,189,187,181,174,166,161,156,155,152,148,143,138,140,145,148,150,151,152,153,150,148,147,144,143,141,138,133,128,125,119,116,114,113,111,112,114,117,115,110,107,106,103,101,100,96,96,97,97,96,93,92,90,88,87,86,83,78,76,74,71,67,64,62,63,64,64,64,64,62,60,59,59,61,64,65,68,72,76,79,82,84,86,91,94,97,100,102,105,108,112,116,117,118,121,123,124,125,126,128,128,130,134,134,134,137,139,141,139,137,136,136,134,131,129,127,127,125,123,121,119,117,119,117,114,112,109,106,105,105,106,105,102,98,95,94,94,96,97,101,105,106,106,102,99,96,97,98,98,98,99,101,103,108,113,116,119,119,118,118,118,118,121,118,114,113,112,113,117,122,128,131,131,130,131,135,138,143,143,132,126,121,117,115,112,110,111,111,110,104,98,96,93,94,96,96,94,93,91,89,87,85,84,84,85,91,92,92,92,89,85,86,87,86,82,75,71,70,73,72,71,70,70,68,67,68,67,66,66,64,61,57,55,56,58,61,67,70,70,66,63,58,51,50,55,64,68,73,77,81,87,91,94,95,92,90,89,88,87,81,77,72,68,63,57,53,51,49,46,43,42,42,38,32,32,36,41,46,53,57,55,52,53,54,55,54,52,51,50,49,49,48,46,45,42,43,41,41,41,40,40,42,44,44,42,43,45,43,42,41,39,38,40,45,50,54,57,60,59,59,58,55,52,50,48,45,43,43,49,50,50,49,46,45,45,43,41,39,39,40,39,38,38,39,37,37,38,40,39,39,41,43,45,48,50,51,52,54,55,55,55,53,53,55,57,59,61,63,64,64,62,62,63,61,60,59,58,58,58,58,57,57,57,57,58,60,63,67,72,79,91,97,99,98,94,89,87,86,82,80,76,74,74,76,81,89,94,96,97,97,97,95,91,85,82,80,78,72,69,71,73,74,74,73,71,68,63,55,52,54,64,71,76,81,80,77,73,70,66,64,64,62,62,61,61,60,61,62,63,63,61,60,59,59,57,56,55,54,53,53,50,51,58,62,67,69,69,69,69,70,70,70,71,72,74,73,72,72,72,71,69,67,67,66,66,66,66,65,64,63,64,66,68,69,68,68,67,66,65,64,63,63,63,62,60,59,58,56,55,52,50,49,49,48,47,47,48,49,49,51,50,50,51,51,50,49,49,51,51,52,54,55,54,55,54,52,51,52,56,57,58,60,63,64,62,59,57,57,59,61,62,61,62,61,63,65,65,65,63,60,58,57,57,58,59,60,59,59,60,61,61,63,64,66,68,70,76,74,76,78,80,80,80,81,83,87,90,90,90,91,91,93,94,96,97,97,95,90,86,85,83,82,82,82,82,83,89,92,90,90,89,87,87,87,84,78,74,74,74,77,80,81,80,81,83,80,78,77,76,76,75,74,72,71,70,70,73,73,71,71,70,70,70,70,69,70,71,70,69,69,69,68,69,71,71,70,71,71,71,72,72,73,74,76,77,77,78,76,76,74,72,74,76,76,76,76,78,81,84,83,83,83,85,86,86,85,84,86,88,89,89,89,86,84,81,78,77,77,77,78,78,77,75,73,72,73,76,76,76,77,79,80,83,85,87,88,88,90,91,90,91,90,85,80,78,77,75,74,72,70,69,69,68,68,70,69,69,71,70,69,68,68,67,67,66,67,66,65,66,66,66,72,75,74,72,68,65,65,67,66,64,64,64,64,65,66,65,68,73,72,71,72,73,74,73,71,69,68,68,70,72,75,80,85,90,92,93,92,92,92,93,94,95,96,95,94,91,89,86,84,83,81,79,80,77,73,69,69,72,79,83,85,86,83,83,82,80,79,77,77,77,77,78,79,79,79,82,87,93,100,106,108,107,105,101,99,99,101,101,101,100,97,95,93,94,97,101,100,96,92,89,88,86,86,85,84,83,82,83,84,85,87,88,89,90,88,87,87,89,88,86,84,80,75,72,71,68,66,65,65,66,67,67,68,67,67,66,65,63,61,61,63,65,67,68,67,66,63,61,60,60,59,58,55,53,51,51,51,51,50,49,47,47,46,44,44,47,49,50,53,49,42,39,39,38,39,39,40,39,41,40,39,39,38,37,39,41,41,41,41,40,39,39,39,38,39,57,92,118,130,138,140,139,137,136,136,130,124,117,109,96,82,63,51,47,47,46,48,50,54,55,57,65,74,85,93,101,106,110,112,113,115,116,117,118,117,116,114,111,107,102,98,95,95,94,88,85,84,82,80,79,82,84,86,88,92,97,102,108,112,114,116,116,115,114,113,112,110,108,105,101,98,95,93,94,95,95,93,88,83,77,73,74,79,85,90,95,101,103,105,106,107,108,110,111,115,118,117,114,113,112,113,115,116,116,114,113,111,105,100,97,95,92,92,91,88,87,86,88,88,88,88,89,88,86,87,86,85,85,83,83,82,79,77,75,76,76,76,74,71,67,64,62,62,65,68,70,70,71,72,73,74,76,77,81,85,90,94,98,102,105,107,107,106,102,96,88,82,77,74,72,71,69,68,67,66,64,64,63,63,64,63,62,63,62,61,61,61,63,65,64,62,60,59,57,52,51,51,50,50,51,52,52,53,56,58,59,60,61,62,63,62,60,62,66,68,72,75,77,78,79,80,82,83,84,84,86,87,89,90,91,90,88,86,83,77,72,65,59,54,49,48,47,47,49,50,51,51,52,54
190,188,186,185,181,174,169,162,156,153,149,146,143,145,150,155,157,159,162,164,166,166,165,162,160,155,153,149,143,140,138,131,126,123,122,125,126,124,122,122,120,119,119,115,110,108,103,102,102,100,98,97,95,92,91,91,89,84,80,78,76,74,72,68,64,63,61,59,59,59,58,60,61,59,60,61,62,65,69,72,76,80,83,84,86,90,93,96,99,102,104,106,109,113,114,116,117,116,118,123,122,117,121,122,122,128,130,131,132,131,128,129,128,126,124,124,123,122,120,117,117,116,112,113,114,112,110,108,105,102,100,100,101,98,96,94,93,91,91,94,97,101,102,101,99,96,92,92,93,93,96,99,103,107,111,113,112,114,115,113,114,117,119,119,117,110,109,110,114,117,120,125,128,126,126,130,134,139,144,142,134,131,130,126,123,123,126,128,125,117,112,103,100,96,94,92,92,90,89,87,87,87,85,83,83,83,85,91,89,87,85,82,81,80,79,76,73,71,71,70,72,75,74,74,72,70,71,70,67,65,63,61,61,59,57,54,52,54,57,58,56,55,54,50,55,65,71,74,79,82,85,88,91,93,92,89,88,87,85,82,80,79,73,66,61,56,52,48,46,45,43,41,41,38,36,33,33,35,41,45,48,50,50,52,53,53,51,49,48,46,45,43,43,41,41,41,42,42,41,39,39,41,42,43,43,42,43,43,43,42,40,39,39,40,43,48,52,54,55,55,53,50,47,47,46,43,42,40,39,40,42,41,39,38,39,39,39,38,36,36,37,38,38,37,36,36,37,39,39,39,41,42,43,45,47,50,53,56,58,61,62,61,59,63,66,68,69,71,71,70,70,69,68,67,65,64,64,63,63,63,63,62,60,59,59,60,61,63,65,68,73,81,91,94,94,91,87,86,84,83,82,81,77,74,73,77,83,88,88,90,89,90,91,91,86,81,77,73,69,66,65,69,71,71,71,70,67,64,59,52,52,54,62,72,74,75,74,71,66,62,60,62,62,62,60,60,59,59,58,60,59,57,56,53,53,54,53,52,52,51,49,48,51,56,61,66,67,67,68,69,70,69,68,66,67,68,67,65,64,64,64,66,61,59,59,59,59,58,59,58,57,58,60,61,62,63,63,62,61,61,60,58,58,57,57,56,56,54,53,52,49,48,48,48,47,46,47,48,48,50,51,49,49,49,49,50,51,50,51,53,52,52,52,52,53,52,51,51,52,53,54,55,56,56,56,56,55,56,55,54,57,62,62,60,62,65,66,65,61,59,57,55,56,58,58,58,59,59,60,60,59,60,61,61,63,65,66,68,69,71,74,77,77,75,76,79,88,91,90,89,89,90,91,92,95,98,98,96,91,89,88,87,86,85,86,86,88,93,94,93,93,92,91,90,91,91,84,76,75,78,86,89,88,86,84,83,80,79,78,75,76,77,78,76,74,73,72,71,70,71,69,67,67,70,70,69,69,70,70,70,70,69,68,70,70,71,70,70,71,72,72,72,74,75,78,80,81,80,77,75,75,75,76,78,79,81,81,80,82,84,85,85,85,87,88,88,86,86,86,89,91,92,91,89,84,83,80,77,75,75,75,74,74,74,71,73,75,75,74,76,77,77,79,82,83,85,86,86,89,91,92,91,91,88,82,80,78,77,75,73,70,69,69,70,70,69,69,68,69,70,69,68,67,66,65,66,67,67,67,69,68,71,74,76,77,76,69,67,68,67,65,63,64,64,65,65,65,66,67,70,72,72,71,70,71,71,70,69,69,70,71,72,73,76,80,85,91,93,92,91,91,91,91,93,95,97,95,92,90,87,85,84,82,80,79,77,73,70,69,69,71,74,76,78,76,75,74,74,74,73,75,76,82,84,83,83,82,83,88,97,106,115,119,118,114,110,108,106,105,104,103,100,97,92,89,89,92,95,94,90,87,85,83,81,81,82,83,82,81,82,83,83,84,84,85,86,86,84,84,84,82,78,76,75,72,69,66,66,66,63,62,62,62,64,65,65,65,63,61,60,59,59,59,61,65,68,69,67,67,65,64,60,56,54,53,53,53,51,50,48,47,47,46,45,45,45,47,46,48,52,52,46,40,38,38,41,42,40,40,40,41,41,40,40,40,38,37,36,38,38,39,38,37,38,38,37,39,61,95,123,135,139,138,136,131,131,130,125,121,116,110,99,84,69,54,48,46,47,48,49,53,55,58,60,62,72,82,95,105,109,112,115,117,119,121,121,121,120,118,116,112,108,105,103,102,99,96,94,91,90,88,85,84,85,86,85,86,88,93,97,102,109,111,113,115,116,116,115,112,111,108,105,103,101,98,98,99,97,94,89,83,76,73,75,79,82,86,90,94,96,100,102,106,107,108,111,112,114,115,115,115,115,116,116,116,115,115,112,109,106,101,98,95,94,95,93,90,88,85,83,84,83,83,83,84,82,81,80,79,78,78,77,76,75,73,71,70,69,68,67,65,63,61,62,64,66,71,73,74,75,76,77,77,79,79,81,84,89,94,101,105,107,109,108,105,101,97,89,84,79,76,74,71,70,70,69,67,65,64,63,61,60,59,59,59,57,57,58,58,59,59,58,57,55,53,53,51,49,50,52,53,54,54,55,55,57,60,63,64,65,67,67,66,63,64,67,71,75,76,79,81,84,86,87,87,87,88,89,90,90,90,88,86,83,78,70,64,58,52,48,48,47,46,46,47,52,54,56,57,59,60
185,183,182,180,176,169,164,161,159,156,152,150,152,155,159,164,167,170,174,178,179,179,177,175,172,167,163,160,155,150,148,139,133,134,136,136,134,131,129,127,126,125,122,119,116,112,109,108,106,102,101,99,97,95,94,92,90,86,83,80,77,75,72,68,66,64,62,60,59,57,56,56,56,57,59,62,63,68,71,72,76,79,81,82,85,90,92,94,95,98,103,104,105,108,110,113,114,113,114,114,119,124,123,121,122,124,124,125,127,125,122,120,120,119,120,120,119,118,116,114,112,109,107,107,107,108,108,106,104,102,99,97,98,96,95,94,92,89,89,90,92,97,97,96,94,91,89,89,90,92,97,101,104,107,109,108,106,107,110,111,114,116,118,114,108,106,108,114,118,120,123,123,122,122,125,127,130,134,137,135,135,135,136,134,133,139,142,145,144,140,129,114,107,102,97,93,90,88,88,86,85,85,84,84,82,80,80,81,85,82,80,78,76,74,74,75,74,73,75,77,78,78,76,75,74,73,74,72,70,68,68,67,67,64,60,58,58,56,52,50,48,46,46,50,57,66,74,78,81,83,83,86,89,92,91,86,81,82,82,78,75,72,69,66,60,55,50,45,44,43,42,40,39,38,37,33,32,34,38,42,46,50,52,53,54,53,52,49,46,44,42,41,40,39,38,40,41,40,37,37,38,40,40,40,40,40,41,42,42,42,42,40,37,36,38,41,43,45,46,46,45,44,42,42,41,40,41,40,39,37,37,37,37,37,36,35,34,34,35,35,35,36,37,36,37,38,39,40,40,41,42,43,46,48,51,52,55,59,63,65,66,67,69,74,78,82,84,84,84,82,78,76,76,73,71,71,70,68,68,68,66,65,65,65,65,64,65,67,69,71,78,83,87,91,91,88,87,89,90,88,85,83,79,76,73,71,72,76,80,82,83,85,86,86,83,79,75,71,66,64,62,64,66,66,67,69,68,65,60,53,52,52,54,67,71,70,69,69,64,60,59,60,63,64,63,63,61,59,58,56,54,55,54,53,52,52,52,51,50,50,48,47,48,54,63,68,67,67,68,68,68,68,67,64,62,63,63,62,61,58,57,57,55,54,54,53,53,53,51,53,53,53,55,56,57,57,57,56,56,56,56,55,53,53,55,53,52,51,50,48,47,47,48,48,47,47,48,46,46,47,49,47,46,47,48,49,50,52,52,53,53,51,50,48,49,49,48,48,50,50,52,53,53,54,55,55,54,53,52,52,53,59,64,61,64,66,66,63,58,57,57,58,59,60,60,61,61,60,61,61,62,63,64,64,64,64,65,67,68,70,71,73,73,73,72,76,82,81,81,81,84,85,87,90,90,90,92,93,92,92,91,90,88,86,88,88,88,89,90,90,88,86,87,86,86,85,82,78,78,83,89,92,90,87,88,86,84,81,79,77,77,81,83,83,82,77,72,70,71,70,69,68,69,70,69,69,70,71,71,71,70,69,70,70,71,71,70,70,70,71,72,73,76,78,81,83,84,82,80,77,76,77,76,75,78,81,83,82,83,87,89,90,90,90,90,88,87,87,88,88,89,91,93,92,91,89,83,80,78,74,73,74,73,72,71,72,73,74,74,74,75,77,78,80,83,85,86,86,85,86,88,89,89,86,84,84,81,77,76,74,72,70,69,70,69,68,69,69,69,70,69,67,67,69,69,70,70,70,70,70,70,73,75,75,71,69,69,68,66,65,64,64,65,65,66,65,64,64,64,66,69,69,69,70,67,68,70,71,72,73,76,78,78,78,80,83,88,91,89,87,87,87,87,88,91,94,96,94,91,88,87,87,84,82,80,77,75,73,71,69,69,69,70,71,72,74,73,75,77,81,82,84,90,93,92,91,88,86,89,98,107,116,120,120,118,116,114,111,108,106,103,100,97,91,87,86,87,88,87,86,84,83,82,81,82,82,81,80,79,78,81,83,83,83,82,83,83,82,82,80,77,75,72,70,69,67,66,65,62,60,60,60,60,62,62,62,62,62,60,59,59,58,56,56,56,57,62,67,68,66,64,60,57,55,53,51,50,49,48,47,46,45,45,44,44,46,49,48,47,50,50,43,40,39,39,42,42,42,42,41,41,42,41,44,44,41,39,37,38,37,36,37,37,37,37,36,44,73,106,124,130,130,127,121,116,114,112,107,106,106,100,93,81,69,58,51,50,50,50,53,59,64,68,68,65,68,78,86,94,104,110,114,117,120,121,121,122,124,125,125,121,115,111,109,108,106,103,101,99,97,94,93,92,91,93,93,93,91,90,90,92,98,105,110,112,114,117,117,116,114,113,110,107,105,105,103,102,99,93,88,82,75,74,80,82,82,82,83,86,88,91,95,99,102,105,108,109,112,114,115,117,118,119,118,117,117,115,113,110,106,102,99,96,95,96,93,91,88,84,83,82,80,79,78,78,77,74,74,75,73,72,72,71,70,70,67,67,67,67,67,65,64,64,64,65,65,70,73,75,77,79,81,82,82,82,85,88,93,98,102,105,107,108,107,106,102,97,91,87,83,80,78,77,77,76,74,71,70,67,67,65,62,61,60,58,57,56,56,55,55,55,53,53,52,51,50,50,50,51,53,56,58,58,58,58,59,61,63,65,67,69,70,69,67,67,71,74,77,80,82,85,88,90,91,91,91,90,90,89,88,86,84,80,73,66,59,53,50,48,47,47,47,47,47,52,58,61,62,61,62,64
182,181,180,178,176,174,171,168,166,163,158,154,159,165,168,172,176,180,185,189,191,191,190,188,184,179,174,167,161,156,149,145,140,140,143,143,138,135,133,131,129,127,123,120,119,116,112,109,107,104,102,100,97,95,93,91,90,90,88,82,79,75,71,70,68,66,65,62,60,58,57,56,55,54,57,61,63,67,70,73,75,76,77,81,83,85,87,85,89,95,96,98,100,102,104,107,107,107,109,108,114,118,116,117,115,113,119,122,123,119,117,115,115,115,115,115,115,115,114,110,107,106,106,105,104,103,104,104,102,101,100,98,96,94,94,92,89,86,85,89,93,94,95,93,90,88,86,87,86,90,94,99,102,104,103,103,102,103,106,109,113,114,112,107,104,107,110,115,120,123,123,121,119,119,121,123,125,127,126,128,130,131,132,132,133,134,137,137,137,139,131,119,113,105,98,95,94,93,91,88,84,83,83,84,83,81,80,80,79,81,78,76,75,75,76,77,78,79,81,82,81,78,78,77,77,77,77,77,77,76,76,76,75,72,68,70,71,68,65,60,57,52,48,47,51,57,63,71,80,81,80,81,85,88,87,83,78,74,75,75,73,69,66,62,58,53,50,45,42,41,42,40,39,37,34,32,32,35,41,45,49,51,54,55,54,54,52,49,46,44,41,39,38,37,38,39,40,38,35,36,37,37,39,40,39,40,40,41,42,43,43,41,39,37,35,37,41,41,42,42,41,41,38,39,38,37,38,38,37,35,35,36,36,37,35,35,34,33,34,34,35,37,38,40,41,42,43,43,44,44,45,47,52,57,60,62,63,66,70,74,76,77,81,85,91,96,99,99,97,93,89,86,83,81,79,77,76,75,74,73,72,72,72,73,75,77,76,74,74,74,79,82,84,86,87,87,87,87,89,90,88,86,85,82,78,73,70,69,70,74,77,79,79,79,76,73,69,66,64,62,60,57,58,59,59,62,64,63,60,54,52,52,54,62,65,68,69,63,58,55,55,60,62,65,67,65,64,62,58,55,54,54,54,54,53,52,52,49,48,49,47,46,50,58,66,68,68,67,67,66,66,64,62,61,60,60,60,60,60,57,55,54,52,52,51,50,50,50,49,49,49,50,51,52,53,54,52,51,51,52,51,50,49,49,51,51,50,50,49,48,47,47,47,47,47,47,46,46,45,46,47,48,50,51,51,52,52,52,51,51,50,49,49,48,49,51,51,50,49,50,50,52,51,52,53,53,53,54,54,54,53,53,55,57,60,62,60,56,56,58,58,59,61,61,61,63,62,62,62,63,64,64,63,63,63,64,66,67,67,68,68,69,70,70,71,73,76,74,75,77,79,80,82,84,86,88,88,89,92,92,91,92,89,87,88,88,88,88,88,87,86,84,84,82,80,79,78,75,76,83,88,87,83,83,84,83,81,79,79,78,78,77,79,81,78,74,72,71,71,71,69,69,69,69,69,69,70,69,70,70,69,68,69,70,70,70,69,70,70,72,74,77,79,81,82,83,83,82,80,77,75,74,75,74,76,80,83,84,86,88,88,88,91,90,88,88,87,86,86,87,89,93,93,94,94,91,87,83,80,78,77,78,77,74,71,70,71,73,74,72,73,75,77,81,83,83,83,84,83,81,82,83,83,80,79,81,79,76,76,75,73,70,69,69,70,69,69,70,70,70,70,69,71,72,73,73,73,73,71,71,72,75,78,78,74,68,67,68,66,66,64,64,65,67,67,66,65,63,62,63,65,68,70,69,68,67,69,71,72,75,76,79,81,80,83,87,91,91,89,87,85,85,85,85,84,85,88,89,89,87,88,88,86,84,80,77,75,73,72,69,68,69,70,72,74,76,79,83,86,91,94,95,98,101,102,100,96,93,94,105,114,118,119,118,117,115,114,112,109,106,103,99,96,94,90,85,84,86,85,84,82,82,83,83,83,85,84,81,78,77,79,81,81,81,81,82,82,82,81,79,74,71,70,68,67,65,64,63,62,60,59,59,59,60,60,59,58,59,59,59,58,57,56,53,52,54,59,60,62,64,62,60,59,57,56,52,49,47,46,46,44,43,43,43,43,43,48,50,50,48,45,41,41,40,40,42,44,43,44,43,43,43,43,43,42,42,45,44,40,39,37,38,38,41,42,42,52,77,102,115,117,113,105,101,96,89,83,82,82,79,79,76,69,62,55,50,50,52,52,52,62,70,75,78,77,72,72,75,81,91,98,105,113,119,120,122,123,122,123,125,125,121,116,114,114,112,109,106,104,104,103,101,98,96,98,98,98,97,96,94,93,94,100,106,110,113,116,118,118,116,115,114,112,112,110,105,102,99,94,89,85,79,81,87,89,90,90,90,90,90,91,91,92,94,100,103,104,107,110,113,116,117,118,120,118,117,116,113,109,105,101,98,96,95,93,90,88,87,86,87,87,85,85,82,81,79,77,77,76,75,73,73,71,72,72,71,72,74,74,77,78,74,67,64,65,67,68,70,72,74,77,80,83,85,87,89,93,96,101,104,106,108,108,108,104,99,97,94,90,86,83,82,82,80,78,77,74,73,72,71,68,67,66,64,61,60,59,58,56,54,53,53,52,53,52,50,50,51,53,56,58,59,61,62,62,63,63,64,65,68,70,72,71,70,69,73,77,79,82,86,89,92,93,94,92,90,90,88,87,82,75,70,65,59,55,51,48,47,48,48,49,49,49,50,54,60,65,66,67,67,69
181,179,177,178,180,180,177,175,171,168,164,163,164,167,172,179,185,189,193,196,197,197,195,193,190,186,180,172,165,159,154,151,150,149,147,142,139,136,133,130,127,125,120,117,116,114,111,108,106,104,102,100,98,97,95,92,91,90,87,83,79,74,73,73,71,68,66,65,62,60,58,56,56,55,56,58,60,64,67,70,72,73,74,76,79,81,81,83,87,90,90,90,92,97,101,102,101,100,100,101,106,108,110,110,109,107,112,116,117,115,112,110,109,110,111,110,111,113,111,109,106,102,102,99,98,100,102,101,99,98,95,95,94,91,89,89,88,86,85,87,89,90,91,89,87,85,85,85,85,89,93,96,99,99,99,99,98,99,102,106,109,108,106,102,101,107,112,115,119,121,122,119,118,117,117,120,123,122,121,121,120,122,125,126,128,127,123,122,123,123,118,113,111,104,97,95,94,94,93,90,84,82,83,84,83,82,87,90,89,88,86,85,81,78,80,82,83,83,84,84,83,81,81,80,83,82,80,80,81,80,79,77,76,75,74,74,73,71,68,64,63,59,55,48,46,49,57,67,75,76,76,76,80,83,83,80,75,70,68,65,65,65,63,60,57,52,49,45,42,40,40,39,36,34,32,31,34,36,38,43,48,51,52,51,50,51,50,48,45,44,40,38,38,36,37,37,38,37,35,35,34,36,38,39,39,40,40,41,42,41,42,41,40,39,36,36,38,40,40,37,37,36,37,36,35,35,35,36,36,34,34,35,35,36,35,35,36,36,36,38,41,43,45,47,46,47,48,49,48,49,52,57,63,68,71,73,73,76,80,83,86,89,93,99,101,106,111,112,112,107,101,95,93,89,88,86,85,85,86,85,83,82,82,84,87,87,86,85,84,82,82,83,83,83,81,82,82,84,86,87,87,85,86,86,84,80,76,71,68,67,68,72,73,71,69,66,62,60,58,57,56,54,53,53,53,53,54,54,52,52,52,52,53,57,54,53,52,52,52,52,53,58,61,65,67,65,64,62,59,56,54,53,54,53,52,51,51,48,48,48,46,47,51,60,65,67,67,66,65,65,65,63,61,58,56,57,58,60,60,58,57,55,53,51,50,49,48,47,46,47,49,49,50,50,51,49,49,48,48,49,48,48,48,49,50,50,51,50,50,49,48,47,47,47,48,46,45,47,48,48,49,51,52,53,53,54,53,51,49,49,52,56,54,53,55,56,58,58,56,55,57,60,58,58,57,59,59,59,61,63,61,57,57,57,56,55,55,55,56,56,57,58,60,62,62,62,62,59,61,63,63,64,64,63,62,64,64,63,65,65,65,66,68,70,71,72,72,70,72,74,74,76,78,79,81,83,83,86,89,90,88,88,88,88,88,88,88,86,85,84,83,81,80,78,77,75,74,73,75,81,82,78,78,79,78,77,76,76,75,75,76,73,72,73,73,72,71,72,71,71,71,71,69,69,70,70,70,69,68,69,70,70,70,69,69,70,71,72,72,74,75,79,83,85,84,85,86,84,82,79,77,74,73,71,74,76,79,82,83,84,83,81,82,81,82,83,83,82,83,84,87,87,91,94,94,91,89,87,84,81,81,80,78,76,74,71,71,72,72,72,73,74,76,77,78,79,79,80,81,79,77,78,78,77,78,78,77,76,76,75,73,70,69,69,69,69,70,70,71,73,74,74,72,72,72,72,72,70,68,67,68,73,76,77,77,71,68,67,66,66,64,63,64,64,64,64,63,63,62,64,68,70,70,69,68,67,69,69,70,72,73,74,74,76,82,90,95,94,92,89,87,85,83,82,82,80,78,79,79,81,84,84,83,82,81,79,76,73,70,68,68,68,70,73,78,83,88,92,96,100,103,104,107,108,109,110,107,101,101,108,115,117,116,112,111,110,110,109,104,101,99,97,94,91,88,85,84,84,85,83,83,82,82,83,83,84,84,81,79,77,76,76,78,79,79,80,80,79,79,77,73,70,67,66,67,64,63,63,62,60,57,57,57,59,59,57,57,57,58,59,58,55,54,52,51,52,51,52,55,58,60,60,59,59,58,54,50,47,46,45,44,43,44,43,42,42,44,47,45,42,41,42,41,40,40,43,45,45,45,44,44,45,44,43,44,48,49,46,43,42,40,39,42,46,47,48,53,68,87,95,95,91,87,81,72,63,60,59,56,58,65,65,58,55,52,50,49,51,52,58,66,74,83,90,90,89,86,82,81,80,84,91,99,107,116,120,122,123,123,123,122,121,120,119,119,116,112,111,111,111,115,112,103,100,102,102,102,101,99,98,96,96,101,108,110,113,116,118,119,118,117,115,115,111,106,102,98,96,94,91,86,82,81,87,93,96,96,97,98,98,97,95,95,97,99,101,103,105,108,112,114,117,118,119,118,117,116,114,110,106,103,101,99,98,97,94,93,92,91,90,90,90,88,87,86,85,84,83,82,81,78,77,77,77,77,77,79,80,79,78,74,68,67,65,69,72,73,73,73,72,74,77,80,83,87,91,94,98,99,102,104,104,102,98,94,90,87,85,85,85,84,85,82,80,80,78,77,76,75,73,73,72,71,68,65,62,63,61,59,56,54,53,52,52,51,51,52,53,54,56,58,62,64,66,66,67,68,68,68,71,73,74,74,72,72,75,78,80,84,88,90,91,91,91,89,86,82,78,72,64,60,57,54,51,49,49,49,49,50,52,53,53,52,52,53,57,62,66,71,73,75
184,186,188,185,183,181,180,178,175,170,168,168,168,170,179,187,193,198,200,199,198,198,197,194,191,188,185,178,170,167,166,164,163,159,153,147,141,137,136,133,130,127,124,120,116,111,107,106,102,101,100,98,99,97,93,91,91,90,87,84,79,73,72,71,71,70,68,66,64,61,59,58,55,54,55,56,60,63,66,68,70,69,71,74,76,75,75,79,83,84,84,85,89,95,98,99,96,93,92,97,101,103,103,102,103,103,106,110,112,111,108,106,106,106,109,109,108,109,108,106,103,99,96,94,94,94,95,94,95,95,93,94,93,89,87,87,86,85,83,82,83,87,88,87,84,82,81,83,87,90,92,93,95,95,94,95,95,96,100,105,107,105,102,100,101,105,112,116,117,119,119,118,115,114,115,118,117,114,113,116,116,109,109,111,118,122,118,113,112,112,109,107,105,101,98,95,93,93,93,89,86,83,83,83,85,87,93,96,94,91,90,91,89,84,83,84,85,85,85,85,84,84,82,81,80,80,79,78,77,77,78,78,78,75,75,72,71,69,66,66,64,61,56,51,46,45,53,65,71,72,71,72,77,81,80,78,74,71,68,65,62,60,60,59,55,49,44,41,39,39,39,37,35,32,31,30,33,35,35,37,43,47,49,49,50,49,48,47,45,42,40,38,37,36,35,34,34,34,34,35,37,37,39,38,38,39,38,38,39,38,39,39,38,38,35,35,37,37,38,37,36,35,35,34,34,33,35,35,34,33,35,36,36,37,38,37,39,41,42,46,50,53,53,54,53,53,53,54,53,55,60,66,73,78,81,83,87,90,94,97,99,101,102,102,101,104,107,110,113,112,110,107,106,105,104,102,101,98,98,97,96,97,96,97,98,97,97,94,93,92,91,88,83,81,80,78,77,78,79,78,80,80,81,83,83,81,77,75,71,66,64,66,65,66,66,64,64,64,64,63,61,60,56,55,55,54,54,55,54,53,52,52,52,52,52,52,52,52,52,52,53,58,59,62,64,64,64,63,60,56,52,51,52,53,52,49,48,45,44,46,46,48,54,61,63,64,66,65,64,63,62,62,61,59,56,54,55,56,57,57,55,55,53,52,50,49,49,48,46,45,46,47,48,48,48,48,48,49,50,48,46,47,47,48,48,48,50,50,50,51,49,47,46,46,46,47,48,50,49,49,51,53,53,53,52,51,50,48,48,50,56,64,61,56,57,60,61,62,62,62,65,65,65,65,66,66,66,68,71,73,71,66,63,61,60,58,58,57,55,55,56,57,57,57,60,62,61,60,60,61,62,62,62,62,61,62,63,62,63,64,64,65,65,67,69,69,68,68,70,70,70,72,72,77,82,82,79,81,82,85,85,83,83,84,85,87,86,83,82,83,82,81,80,79,77,76,76,74,75,76,77,77,77,76,74,73,74,75,74,73,73,73,72,70,69,71,71,73,72,71,70,71,71,69,68,69,71,69,68,68,69,69,67,67,69,71,72,71,72,73,77,81,86,88,89,87,89,91,84,79,76,73,71,71,72,75,77,79,78,78,79,78,76,77,77,79,80,81,81,81,81,83,85,87,89,89,88,88,85,84,83,81,81,78,75,73,74,77,74,72,74,75,74,72,72,74,75,76,76,77,76,74,74,75,77,77,76,74,73,72,71,69,70,69,68,69,68,70,72,74,75,75,73,71,70,69,68,67,66,67,67,73,78,78,77,74,69,67,66,64,62,63,63,64,62,61,61,62,63,65,70,72,71,69,66,66,67,67,69,71,72,70,70,75,80,87,93,94,94,93,91,88,87,85,83,81,78,77,77,76,76,77,75,75,75,77,77,73,71,69,67,67,72,76,81,91,98,101,103,106,108,110,111,112,114,114,113,109,106,108,113,114,113,108,104,103,103,100,98,96,96,95,92,87,85,83,82,81,82,81,82,81,82,84,82,82,83,83,80,77,76,73,73,75,75,76,76,77,76,75,72,69,68,66,66,63,62,62,62,60,58,57,55,55,55,56,55,54,56,57,56,54,52,50,49,51,52,55,56,58,59,61,59,57,54,51,48,46,45,42,42,43,42,41,42,42,41,39,39,40,40,41,39,38,39,44,48,48,48,46,46,46,46,48,49,50,52,52,51,50,50,50,51,51,51,55,59,65,73,81,81,79,74,69,64,63,62,60,57,53,54,55,56,56,55,52,51,51,56,65,72,80,88,97,103,103,102,100,99,98,94,92,93,97,106,112,117,121,123,123,124,125,124,124,123,123,121,118,116,115,118,115,106,105,106,107,106,105,103,103,101,98,100,105,109,113,116,118,119,119,119,117,112,107,103,98,94,92,91,91,91,89,83,86,95,100,102,104,104,104,103,101,99,101,104,107,109,109,111,114,116,118,119,119,119,118,118,116,113,109,106,103,102,102,102,100,99,98,97,95,94,94,93,92,90,89,88,86,85,84,83,82,83,84,83,83,84,82,81,79,71,67,66,66,71,75,77,79,79,79,80,79,80,81,85,88,93,96,98,98,97,94,90,87,83,81,80,79,79,80,79,79,78,78,77,78,78,76,76,76,76,74,72,69,67,65,63,61,58,56,54,53,52,52,52,53,56,57,57,58,59,62,65,69,70,72,73,74,74,76,77,77,77,77,77,77,79,82,85,88,89,89,87,85,80,75,67,59,56,55,53,52,51,49,49,50,51,51,53,55,56,58,57,56,54,52,54,60,68,72,77
200,200,199,195,190,186,183,180,175,172,172,173,173,177,183,189,193,198,200,200,199,196,195,192,189,187,185,181,179,176,173,171,171,167,161,153,149,144,142,138,133,129,127,125,116,111,108,105,103,99,98,94,93,92,92,90,89,87,85,85,81,74,72,71,70,70,70,68,66,64,62,58,55,54,53,55,58,63,65,67,67,67,67,70,71,71,74,77,80,79,80,85,88,90,92,93,90,85,87,94,97,93,93,91,88,91,100,104,106,106,104,103,104,103,105,106,105,103,103,102,102,100,98,95,93,92,89,89,90,89,89,88,87,87,84,84,84,83,82,81,82,84,84,83,81,79,81,83,87,89,91,92,92,90,90,93,94,97,102,105,102,99,99,98,103,107,112,117,118,116,114,112,112,111,113,114,114,110,106,107,111,109,103,101,104,111,113,108,106,103,101,101,102,103,100,96,93,89,88,87,86,84,84,85,91,95,95,90,86,84,84,83,87,88,86,86,86,84,83,83,82,80,77,76,77,77,77,76,74,75,78,78,77,74,73,70,69,68,67,65,63,60,56,51,47,44,50,61,68,68,67,69,72,75,76,74,71,68,67,65,62,58,57,56,53,49,44,41,38,37,36,35,35,32,30,30,33,33,35,37,45,52,50,49,49,48,49,48,45,41,38,36,35,33,32,32,33,33,35,38,40,41,40,39,39,38,37,36,37,38,38,38,37,37,35,34,36,37,36,34,34,34,33,33,33,33,33,34,34,34,38,40,42,40,40,42,44,46,50,54,58,63,66,67,67,67,65,64,61,62,67,70,73,78,82,87,90,94,98,102,103,104,102,100,97,96,99,104,107,109,110,111,112,113,114,114,112,111,112,110,108,107,107,107,106,105,104,103,103,103,97,91,87,84,83,81,78,76,77,77,75,75,72,73,74,73,72,70,67,65,64,65,64,61,64,69,73,73,70,69,67,66,66,66,64,62,61,60,61,60,58,57,54,55,56,55,53,52,52,52,53,54,54,54,58,60,62,62,60,57,52,50,52,51,49,47,47,47,46,47,47,51,58,62,63,64,65,65,65,62,59,59,59,56,54,53,53,54,55,57,55,53,54,53,53,52,50,48,47,46,46,46,47,49,48,49,50,49,49,47,46,47,48,49,49,48,48,49,49,48,49,47,46,46,46,46,47,48,48,49,49,50,50,49,48,47,47,49,51,55,58,61,61,61,61,63,66,68,68,70,72,72,73,74,75,75,74,76,78,80,80,75,76,73,69,66,64,60,60,60,59,58,58,58,60,60,58,58,57,59,60,61,61,62,62,61,63,64,64,64,64,63,63,67,67,67,67,67,67,69,69,70,71,75,80,79,77,77,78,78,78,79,81,84,85,87,87,85,86,86,85,85,84,83,81,80,79,77,77,77,77,78,80,78,72,71,72,74,74,72,71,70,71,71,70,70,70,69,69,71,71,71,71,70,70,69,69,67,67,68,68,68,68,69,68,70,71,72,73,75,78,83,84,85,85,85,86,89,85,78,73,71,71,72,75,77,76,76,75,74,74,73,72,73,75,76,76,78,79,81,82,82,83,83,83,83,83,83,84,83,83,83,82,78,78,76,76,78,73,69,69,71,71,70,70,71,72,73,74,74,73,71,72,72,72,73,73,74,73,73,72,69,69,68,67,68,68,68,71,73,74,75,73,71,69,68,68,67,67,68,66,74,79,80,74,68,65,66,66,66,65,64,62,60,61,61,60,60,62,66,69,70,69,68,66,65,65,67,67,67,68,67,68,70,73,78,83,89,91,92,93,91,89,87,85,83,82,79,78,79,78,77,76,75,74,74,73,71,69,68,69,70,73,77,81,89,97,101,103,108,112,113,113,113,114,114,114,111,106,103,107,108,109,105,101,98,96,93,92,89,86,87,87,84,82,80,79,79,79,79,78,78,79,81,80,81,81,81,81,78,77,75,73,72,73,75,75,75,75,74,72,71,69,68,68,65,65,64,62,61,61,59,57,54,53,53,52,52,54,54,54,54,51,50,52,54,56,59,61,61,60,59,58,55,53,51,49,45,43,42,40,40,39,40,41,39,38,38,39,41,40,40,39,39,44,51,53,52,51,50,50,50,52,54,55,57,59,61,61,60,58,61,64,65,67,71,72,72,75,79,80,80,78,76,75,75,73,68,62,56,53,52,55,55,54,55,53,55,62,71,79,85,94,105,113,116,113,111,111,110,109,108,104,100,101,104,110,117,121,123,124,125,125,126,126,125,125,124,123,122,120,118,112,111,112,112,110,108,106,107,107,104,100,103,108,113,116,118,120,120,119,117,114,110,106,102,99,99,97,95,95,90,83,89,96,101,106,108,109,110,109,106,105,107,109,112,115,115,117,119,120,120,120,119,119,118,117,115,114,113,110,108,107,107,105,103,103,102,101,100,99,98,98,97,95,93,92,91,90,89,88,88,87,89,89,88,88,84,79,74,69,66,67,70,74,78,80,83,84,84,85,85,86,87,88,90,92,93,93,94,91,86,83,82,79,76,75,74,75,73,72,72,72,71,72,72,73,73,73,73,72,71,70,68,67,65,62,59,56,54,54,53,52,53,54,58,60,62,63,62,62,61,65,69,72,75,77,77,78,80,81,81,82,82,81,81,82,84,86,87,87,83,78,74,69,62,57,52,51,51,52,49,49,48,49,53,54,56,57,57,58,60,61,61,59,54,53,56,61,68,76
214,212,206,200,195,189,185,180,176,176,175,175,176,179,185,192,197,200,201,201,200,198,194,191,188,186,184,183,182,180,176,174,174,170,164,159,154,149,144,137,132,128,125,120,115,111,109,107,104,101,98,94,91,88,88,90,89,88,88,91,86,75,70,69,69,70,69,66,65,63,59,56,55,55,55,55,57,60,64,65,65,64,64,67,67,70,71,73,75,77,80,84,85,88,89,87,85,82,83,85,87,86,85,85,83,85,91,94,99,103,100,96,96,98,100,102,103,104,104,102,101,100,96,94,92,90,88,86,86,85,85,83,83,83,82,81,81,80,79,79,80,80,81,80,79,79,83,85,86,87,88,88,89,89,92,98,100,102,102,101,98,96,95,99,106,109,112,115,115,113,112,110,108,110,112,112,111,106,101,98,102,102,97,93,90,98,108,106,102,100,98,97,98,99,99,96,93,88,85,84,83,81,81,83,86,88,86,85,86,85,83,81,83,88,87,83,82,81,80,80,78,75,73,72,73,75,74,71,69,72,74,75,74,73,71,68,67,66,65,63,61,59,56,53,48,43,47,59,64,61,62,63,66,71,71,69,67,63,63,61,59,57,53,49,48,46,43,40,39,36,35,34,32,31,29,28,29,30,32,34,39,48,48,48,48,48,49,47,43,40,37,35,33,31,33,35,38,40,44,48,48,47,43,41,38,38,36,36,35,35,36,36,35,37,35,34,34,34,33,32,33,33,32,33,33,34,36,36,38,39,40,44,45,44,45,49,52,55,59,65,68,70,72,72,72,71,71,69,69,68,68,71,76,79,82,85,88,90,94,96,98,99,97,95,93,92,94,97,100,102,104,108,112,114,114,114,113,113,112,110,108,107,109,108,107,106,106,104,104,106,103,97,92,88,87,85,84,83,84,87,83,80,77,74,72,71,69,67,66,67,67,69,75,78,80,83,85,87,84,82,81,79,77,77,77,75,74,72,71,69,67,68,65,64,63,62,61,57,51,48,44,48,49,51,52,54,55,57,58,56,53,50,49,49,49,46,45,46,46,46,50,57,61,63,64,65,65,63,63,60,57,55,55,55,53,51,50,50,50,52,54,53,54,56,55,54,53,50,47,46,45,45,46,46,46,48,49,49,48,46,45,46,46,47,47,47,47,47,46,46,45,45,44,45,46,45,45,46,46,46,47,47,46,46,47,49,52,54,56,59,61,63,65,64,63,66,69,72,76,80,81,81,83,85,84,84,87,89,89,90,89,88,86,83,78,75,71,65,63,62,62,61,60,60,61,61,60,60,58,58,59,61,62,63,63,62,62,63,63,63,64,63,65,66,67,67,67,67,67,70,71,72,74,74,75,77,77,76,75,75,75,78,81,85,90,90,89,88,88,89,88,87,86,85,83,82,79,78,78,77,76,77,79,79,75,73,73,73,72,70,70,70,70,71,71,71,70,70,70,70,70,70,70,71,71,70,68,67,67,67,67,69,69,67,67,68,69,71,73,77,80,84,85,84,84,83,83,81,79,77,73,70,70,71,73,76,77,76,75,73,73,72,70,73,74,75,76,79,81,82,82,81,80,81,81,79,78,78,81,82,81,81,80,80,79,79,79,76,74,71,70,69,68,67,69,70,69,72,73,73,73,72,72,70,68,67,68,71,71,70,72,69,68,68,69,69,69,68,69,70,71,72,70,69,68,67,66,66,65,66,66,69,72,72,67,65,65,65,65,66,66,64,63,61,60,60,61,62,63,67,67,69,69,68,66,66,66,66,66,65,64,65,67,68,68,69,73,77,82,87,90,90,89,88,86,86,84,84,86,88,88,87,86,83,82,80,76,73,69,65,65,69,72,74,81,91,97,99,101,106,111,114,113,112,113,114,114,112,104,97,101,103,102,100,98,95,93,93,93,91,87,86,84,84,84,82,83,82,79,79,77,76,77,78,76,75,77,78,78,78,75,74,75,72,72,74,74,73,73,75,74,72,71,69,69,67,67,67,65,67,65,62,62,59,55,53,51,51,50,50,50,50,50,54,58,61,62,61,61,60,59,60,56,51,49,47,43,40,40,40,39,40,39,39,39,39,38,37,37,38,39,39,40,46,53,54,54,56,56,56,56,55,56,61,64,66,66,67,68,69,73,76,82,89,95,96,97,99,98,100,100,102,100,96,96,93,86,79,70,60,56,57,60,58,52,50,52,56,64,73,82,93,99,102,109,115,113,111,112,113,113,114,113,111,109,107,108,112,116,119,121,124,126,127,127,128,128,127,126,124,124,122,117,117,116,116,114,112,110,112,111,105,103,105,109,112,116,119,121,122,122,119,117,113,110,107,103,101,99,97,95,87,86,93,99,104,108,112,115,115,115,113,112,113,114,116,119,120,122,125,125,124,122,121,119,118,118,117,117,112,109,111,113,112,107,104,104,103,102,102,101,101,99,98,97,96,96,94,93,93,93,92,92,92,92,89,86,80,74,69,66,66,67,70,74,78,81,84,86,87,88,89,91,93,92,93,94,94,92,91,87,83,80,78,76,74,73,72,72,71,70,67,65,65,65,66,66,67,67,66,66,65,64,64,63,59,56,55,54,53,53,53,53,55,56,60,63,65,65,66,66,65,65,68,74,78,79,80,82,84,86,85,86,87,87,85,85,85,84,84,80,75,71,66,58,55,53,52,53,52,52,52,51,52,53,56,59,61,62,61,61,63,66,66,65,61,57,56,56,61,68
222,217,211,204,199,195,191,185,182,181,179,177,180,182,186,192,198,200,201,200,199,197,194,191,185,182,180,179,178,176,175,174,172,170,165,164,159,154,147,139,134,130,125,121,117,116,115,111,105,100,97,93,88,84,86,93,94,92,90,89,86,75,70,68,65,64,65,64,63,62,59,56,55,53,52,52,54,59,61,63,63,61,61,62,64,66,66,68,71,75,78,81,81,82,83,83,80,78,79,84,85,82,83,82,80,82,84,88,95,98,96,94,94,95,96,98,103,109,110,102,96,96,94,92,90,87,86,84,82,81,81,80,78,79,78,78,79,78,78,78,78,79,78,77,76,78,80,82,82,84,86,87,89,93,97,101,102,103,100,95,93,97,101,105,108,110,111,112,111,109,109,108,107,109,109,105,101,96,91,91,92,91,89,87,84,90,105,107,103,99,97,95,95,94,94,92,90,86,84,82,83,81,78,80,80,80,81,82,83,84,82,79,78,82,84,81,79,77,75,73,72,72,71,70,69,68,69,67,65,65,66,70,71,68,66,63,64,62,61,60,59,57,55,51,47,41,46,56,58,57,59,60,62,64,67,65,62,60,59,56,55,52,49,48,45,43,41,39,38,37,35,33,31,30,29,29,30,30,32,33,33,36,40,44,47,48,47,45,43,40,37,35,31,31,36,41,44,46,49,50,49,45,42,40,37,36,34,34,34,34,34,33,34,34,33,33,31,32,31,32,34,34,35,37,37,38,39,39,40,41,43,47,49,51,53,58,63,67,69,70,71,72,73,73,73,74,72,70,68,68,70,73,76,74,76,80,82,85,88,89,89,89,90,89,85,85,88,91,92,95,99,103,105,108,109,108,109,108,106,103,102,102,101,103,103,104,104,103,105,109,109,105,100,97,95,95,96,96,94,94,91,87,83,79,77,76,75,74,74,73,77,79,83,88,90,92,93,93,90,88,88,87,85,82,78,75,72,70,67,66,65,65,66,66,67,66,63,59,53,47,45,45,46,47,50,50,48,50,52,53,51,48,48,47,47,44,43,44,46,48,53,58,59,62,64,65,65,64,63,59,55,53,51,50,50,49,48,50,49,50,51,52,52,53,54,54,52,50,48,46,45,45,45,44,45,45,46,45,45,46,46,45,44,44,45,45,44,45,46,46,46,45,44,45,46,46,46,45,45,46,47,47,47,47,48,50,55,60,61,61,63,64,64,64,66,71,77,83,86,89,91,94,96,97,95,95,95,96,97,97,96,94,91,85,80,75,71,66,65,65,63,61,59,61,64,65,66,66,66,66,66,69,69,70,68,67,67,67,68,68,67,68,69,70,70,72,71,71,72,75,77,80,81,82,84,84,83,81,79,78,79,80,82,86,89,90,90,89,88,87,86,84,82,80,79,78,78,76,76,76,78,80,80,78,75,75,74,74,74,73,72,70,72,72,71,70,69,70,70,69,69,70,70,71,70,70,70,70,68,67,67,67,67,67,66,67,68,72,75,78,82,84,83,83,82,81,80,79,78,75,72,70,70,73,76,79,79,77,75,73,71,68,69,72,73,77,78,79,81,82,82,82,81,79,78,78,77,75,77,78,79,78,77,77,77,77,77,77,76,74,72,71,69,68,68,68,71,72,73,74,74,72,72,71,70,70,69,68,68,67,70,69,67,66,66,68,69,70,68,67,68,69,67,66,66,65,65,66,65,66,66,67,68,67,66,65,65,65,66,67,66,64,63,62,62,61,62,63,62,62,66,68,68,67,64,65,64,63,64,64,64,65,66,67,67,68,70,71,74,78,82,86,88,87,87,87,87,87,90,92,93,91,88,86,84,81,78,73,68,65,65,68,71,74,79,89,94,98,102,106,109,112,113,113,113,113,112,108,102,97,96,98,95,93,94,93,95,98,97,92,91,91,91,91,90,88,85,83,82,82,80,79,78,78,78,76,75,74,75,76,75,74,73,72,71,72,72,71,71,73,73,73,72,73,73,72,74,72,71,73,72,68,66,64,60,57,54,54,51,49,48,47,49,50,53,57,60,61,60,60,58,53,49,45,41,39,39,39,39,41,42,41,40,40,40,40,40,38,38,38,39,42,48,52,57,63,63,60,60,61,63,61,61,65,69,74,78,81,86,88,96,109,119,127,133,133,129,126,125,123,122,121,120,117,114,107,97,87,76,62,54,55,56,55,52,53,54,55,61,66,76,87,88,91,96,104,109,108,107,108,111,115,116,116,116,116,116,114,113,115,119,123,126,127,128,129,129,129,129,129,128,125,121,120,119,119,117,115,115,115,109,104,105,107,110,113,117,120,122,123,123,121,118,115,112,109,107,103,96,92,90,88,93,98,99,105,109,112,115,117,118,118,117,118,119,122,126,129,130,131,132,129,123,121,120,119,118,115,115,110,107,109,112,109,103,100,101,99,99,99,99,99,98,97,97,96,95,95,95,93,93,93,92,90,88,82,78,73,69,67,67,68,69,70,74,77,80,83,87,89,91,93,95,96,97,97,97,96,93,89,85,82,79,76,75,73,73,73,72,72,73,70,67,66,64,63,62,61,60,60,59,59,58,58,58,57,56,55,53,53,53,55,57,58,58,60,63,66,68,69,70,70,69,69,73,78,82,85,87,89,91,91,91,91,90,88,86,84,81,78,71,66,62,57,55,53,53,53,54,52,52,54,55,56,56,59,62,63,64,66,66,67,69,70,69,66,63,59,57,56,61
229,223,218,213,209,206,199,192,186,185,183,182,183,186,187,190,194,194,195,194,193,191,189,185,179,175,173,173,174,171,169,169,169,167,163,160,157,156,147,138,134,132,128,122,119,120,122,118,112,105,103,101,95,90,88,88,86,82,77,74,72,68,67,65,62,61,62,63,61,60,58,55,53,52,51,50,50,54,57,59,58,58,59,59,60,63,64,67,69,72,74,77,78,78,79,78,75,72,74,78,79,79,79,82,83,80,83,88,92,95,93,91,92,92,91,94,99,101,103,101,95,91,89,89,87,85,84,82,80,79,78,77,75,75,76,76,76,75,75,76,77,77,76,76,77,77,78,79,80,82,85,88,91,96,98,98,99,97,93,90,95,102,103,104,106,107,107,107,108,106,106,107,110,110,106,97,90,88,89,88,87,87,85,82,81,81,89,101,106,103,99,95,93,92,92,91,90,86,82,80,81,80,76,76,78,77,76,77,78,80,79,76,77,81,79,78,75,73,70,68,68,68,67,66,63,63,63,64,62,59,59,62,62,62,61,60,59,56,56,56,55,53,51,49,45,44,48,52,51,52,54,55,57,60,62,61,59,58,57,55,52,50,47,45,44,42,40,38,37,35,36,35,32,31,29,29,30,29,30,31,33,35,36,40,44,47,46,45,44,42,38,33,29,32,38,44,47,49,47,46,45,42,39,37,36,34,33,32,32,32,32,33,33,33,33,34,33,30,30,33,35,36,38,41,42,43,44,46,47,47,51,54,57,58,60,65,70,73,73,71,69,70,70,71,73,73,72,71,68,66,66,67,68,68,70,72,73,75,76,77,78,82,85,85,83,83,85,85,87,89,93,95,97,100,102,102,101,100,100,97,93,90,92,96,98,99,101,104,108,111,110,105,102,100,100,100,100,99,98,98,96,93,90,89,90,89,88,87,86,85,87,92,96,99,102,100,97,94,88,85,81,77,74,70,68,64,62,61,60,59,58,59,60,63,67,68,65,60,56,51,48,45,44,44,45,47,47,47,48,50,50,48,47,46,44,43,42,44,46,50,52,54,58,60,61,63,64,64,63,59,56,53,51,51,50,50,48,48,48,46,48,49,49,50,53,53,52,51,49,47,46,46,44,43,44,44,44,43,44,45,45,45,44,43,45,46,44,45,45,43,44,44,44,45,47,46,47,49,51,52,52,51,50,51,52,52,54,57,59,58,61,65,69,73,76,78,85,92,96,101,105,107,108,107,107,106,107,107,107,107,106,102,97,89,81,76,72,70,69,67,67,63,61,62,64,66,69,72,75,76,76,79,82,82,78,77,76,76,76,76,76,76,77,76,76,79,82,84,84,86,85,87,88,88,87,86,85,84,82,81,79,80,84,89,90,87,86,87,86,84,82,80,79,79,79,78,77,75,75,76,78,81,82,79,77,75,75,76,74,73,73,72,73,73,74,72,71,71,72,71,71,71,71,72,71,71,70,69,68,68,67,67,68,66,66,66,69,72,75,78,81,82,83,82,82,81,79,78,77,74,71,69,68,73,75,78,79,77,76,74,72,70,70,70,71,72,73,76,77,80,81,81,80,78,76,74,74,75,74,75,77,78,75,74,75,76,76,74,73,72,71,72,71,69,69,69,72,74,76,76,76,75,73,72,71,72,75,72,69,67,68,67,66,66,66,66,66,66,68,68,67,66,65,65,65,65,64,65,65,65,64,65,67,66,66,67,67,66,65,66,66,66,65,64,62,60,61,61,60,61,62,66,67,66,67,64,62,62,63,64,64,64,65,66,65,66,68,69,70,73,76,79,83,87,88,89,88,86,86,88,90,89,87,84,81,77,74,70,66,64,66,70,72,75,80,89,97,104,106,108,110,112,113,112,112,112,111,108,102,96,92,93,93,91,92,94,94,95,93,94,96,97,96,95,94,91,89,87,85,84,84,83,81,81,80,78,77,76,76,76,74,73,74,76,74,73,73,71,71,72,73,74,77,79,79,80,80,80,80,79,75,71,68,63,60,59,60,59,55,52,50,50,48,47,49,52,54,55,56,55,53,49,44,42,40,37,38,39,39,41,41,40,41,42,42,43,43,41,42,43,44,47,52,57,65,70,71,68,65,63,64,65,66,69,76,88,97,106,111,119,130,140,150,156,157,154,150,146,143,140,137,135,132,129,123,116,104,92,76,59,51,49,51,54,55,55,57,58,58,57,59,63,67,74,75,77,79,82,90,99,106,110,114,117,119,119,120,121,120,121,122,123,124,126,127,129,129,129,130,132,130,127,126,124,123,123,120,115,113,110,107,108,108,111,111,113,116,120,122,123,122,121,119,116,114,113,109,101,94,89,92,92,93,97,100,105,110,113,115,118,119,119,119,120,125,130,134,134,133,134,133,129,124,122,121,119,117,116,113,111,109,110,110,106,102,101,99,96,96,93,92,92,93,93,93,93,92,92,92,93,92,90,87,83,78,72,70,68,68,68,69,72,74,75,76,76,79,82,86,90,92,95,97,99,100,100,99,98,95,91,86,83,81,79,77,77,77,76,76,74,74,73,72,70,68,67,66,64,62,60,59,59,58,57,57,58,60,57,54,53,54,58,62,63,63,63,64,67,71,73,73,74,73,72,75,79,84,87,89,92,94,95,95,93,91,87,85,81,75,68,62,57,55,54,53,52,52,54,56,56,54,56,57,57,58,62,63,66,67,68,69,70,72,73,73,71,68,63,59,57,58
